ply
format ascii 1.0
element vertex 1704
property float x
property float y
property float z
end_header
0.431123 0.166445 -0.40215
-0.326957 0.203883 -0.057677
0.449027 0.546139 0.11533
-0.100518 -0.070298 -0.027529
0.431794 -0.027286 -0.195569
0.676692 -0.289474 0.185904
0.720074 -0.345193 0.138626
-0.564329 0.024598 0.230783
-0.337276 0.089248 -0.040547
0.159578 -0.424589 -0.130991
-0.571262 -0.119374 0.11533
0.687232 0.505938 0.073192
0.233787 -0.114565 0.013753
0.516083 0.435935 0.257333
0.241229 0.153923 -0.325581
-0.084825 -0.404832 -0.108551
-0.153649 -0.49359 0.149761
0.599857 -0.474743 0.062743
0.479776 0.487152 0.191899
0.672233 0.420772 0.210913
-0.030119 0.589446 0.217764
-0.206404 0.300018 -0.214411
0.106884 -0.154781 0.127321
0.435863 -0.126154 -0.009543
-0.387327 0.326078 -0.192828
0.556011 0.534152 0.088608
-0.311814 0.398631 -0.134417
0.261947 -0.079364 -0.018964
0.000246 -0.213878 -0.040547
0.495171 -0.189163 0.032595
-0.296721 -0.474502 0.167918
0.670252 -0.372596 0.138626
0.582632 0.539005 0.08347
-0.747706 0.269992 0.24363
-0.690339 -0.073661 0.526094
-0.680651 -0.083349 0.526094
-0.455744 0.293708 -0.142125
-0.047928 -0.327305 -0.074121
-0.222998 -0.386065 0.230783
0.560996 0.432595 0.230783
-0.260634 -0.495697 0.155756
0.136318 0.547177 0.217764
0.472445 0.41751 0.285768
-0.709713 -0.096265 0.526094
0.268081 0.065671 -0.263573
-0.18177 0.362424 -0.081829
-0.677423 -0.073661 0.526094
-0.709713 -0.073661 0.526094
0.486382 -0.126182 -0.189402
-0.251717 -0.345451 0.264357
0.656043 0.443576 0.185904
-0.149231 0.401742 0.093747
0.680709 -0.43301 0.093747
0.627786 0.512401 0.093747
0.594107 -0.440227 0.093747
0.533966 0.543674 0.093747
0.66387 -0.420982 0.093747
0.712995 0.392596 0.230783
0.125591 -0.117697 0.057604
-0.359536 -0.385665 0.250482
0.7192 -0.423388 0.093747
0.642219 0.512401 0.093747
0.462503 0.539169 0.127321
0.177522 0.547064 0.204917
-0.273735 0.103421 -0.065556
0.115516 0.007549 -0.1017
0.037776 -0.335569 -0.081829
-0.535109 0.178754 0.042188
0.25632 -0.116818 0.013753
-0.116894 -0.103882 0.023174
-0.079933 -0.119393 0.018035
0.310977 -0.122382 0.027456
0.472381 0.539169 0.127321
0.072884 -0.35678 -0.09382
-0.461954 0.263751 -0.1017
0.369418 0.175001 -0.391872
0.24493 0.193669 -0.372859
0.116482 -0.006249 -0.081829
-0.485488 0.30869 -0.155829
-0.195074 0.36718 -0.159255
-0.504975 0.371036 -0.134417
0.173366 0.562309 0.185904
0.205014 0.006929 -0.173129
0.074145 0.183539 -0.322841
-0.134666 0.399004 0.191899
0.273678 -0.204198 -0.061103
-0.161186 -0.486053 0.149761
-0.437179 0.331706 -0.182551
0.393067 -0.017937 -0.189402
0.560532 -0.140787 -0.208416
0.311709 -0.024964 -0.097417
0.188179 -0.08952 0.008614
0.516038 0.043454 -0.261003
-0.017251 -0.138337 0.027456
0.332544 -0.33093 -0.119686
0.507001 -0.202159 0.027456
0.379358 -0.183924 0.027456
0.354285 -0.174807 0.027456
0.345167 -0.179365 0.027456
0.365682 -0.186203 0.027456
0.272228 -0.126941 0.027456
0.078483 -0.088191 0.027456
0.509281 -0.193041 0.027456
-0.155233 0.08488 -0.119686
-0.312196 0.193737 -0.04483
-0.049162 -0.161131 0.027456
-0.16085 0.392753 0.027456
-0.548093 0.203145 0.013753
0.349934 0.054029 -0.277276
0.400513 -0.304942 -0.119686
-0.33915 0.414729 -0.119686
0.292562 -0.340926 -0.119686
0.102649 -0.406896 -0.119686
0.435212 0.091686 -0.344424
0.169297 0.500828 0.271208
-0.742668 0.282818 0.27806
-0.442718 0.127501 0.093747
-0.2136 -0.392239 0.22376
-0.758292 0.123455 0.257333
-0.546317 -0.548363 0.167918
0.125932 0.003617 -0.097417
0.461147 -0.172376 -0.138699
-4.3e-05 0.16106 -0.277276
-0.485191 -0.530534 0.167918
0.637993 -0.331876 0.167918
-0.245782 -0.471955 0.167918
0.575701 -0.298399 0.191899
-0.567231 0.163598 0.078331
0.173744 0.106428 -0.244559
0.533118 -0.348578 0.173913
0.650435 -0.356891 0.155756
-0.408784 -0.507612 0.167918
0.504917 0.047901 -0.269568
-0.21522 -0.49233 0.167918
-0.531035 -0.540722 0.167918
0.10535 0.007549 -0.1017
0.180589 0.567398 0.179908
-0.155553 0.368839 0.088608
-0.564402 -0.54557 0.173913
-0.187739 0.031435 -0.036265
0.147386 0.151462 -0.298859
-0.766287 -0.218008 0.271208
0.546305 -0.326782 0.167918
0.285659 -0.086394 -0.009543
0.707619 -0.352666 0.138626
-0.743026 0.143703 0.314203
0.608066 -0.398302 0.11533
0.040109 -0.145374 0.132631
0.482782 0.536537 0.121326
0.372825 0.435768 0.299643
0.198368 -0.288159 -0.089538
0.176986 0.506494 0.264357
0.37846 0.516003 0.179908
0.702157 0.491027 0.088608
-0.080259 0.050572 -0.097417
-0.773055 -0.020322 0.29262
0.30653 0.179712 -0.37971
0.547183 -0.303585 0.191899
-0.320589 0.209699 -0.069839
-0.512487 0.140242 0.099057
-0.327551 0.412914 -0.123968
-0.258952 -0.037621 -0.036265
-0.53859 0.383051 -0.123968
-0.759608 -0.20073 0.264357
0.167489 0.112144 -0.253124
-0.746907 0.294958 0.22376
-0.199145 -0.514588 0.138626
-0.140636 0.443376 0.11533
-0.308098 -0.338728 0.271208
0.624996 0.416595 0.230783
0.556144 -0.294854 0.173913
0.204166 0.033295 -0.20499
-0.131787 0.20565 -0.288411
0.581961 0.480587 0.167918
-0.225407 -0.451362 0.191899
0.13041 0.557534 0.204917
-0.25811 0.016621 0.155756
0.418482 0.188111 -0.397868
0.497572 0.511377 0.143765
0.186128 0.131244 -0.282415
-0.431957 -0.528226 0.161751
0.090437 -0.206755 -0.04483
-0.767487 -0.315472 0.29262
0.083865 -0.138188 0.078331
0.183216 0.07853 -0.210985
0.172104 0.05574 -0.179125
0.692967 -0.408131 0.099057
0.198016 -0.000774 -0.108551
0.079558 0.158124 -0.29098
-0.744925 0.154151 0.307351
-0.767478 -0.224415 0.27806
0.536473 0.493442 0.161751
0.342088 0.032688 -0.241133
-0.751502 -0.215141 0.314203
-0.309006 0.22079 -0.085255
0.46364 0.127918 -0.360012
0.558407 -0.450537 0.088608
-0.16323 -0.208796 0.161751
-0.396106 0.212086 -0.049112
0.262909 0.098661 -0.308281
-0.258932 -0.522062 0.138626
-0.550158 -0.459876 0.210913
-0.686721 -0.407319 0.271208
-0.476595 0.134047 0.088608
0.673407 0.514985 0.088608
0.601532 -0.448142 0.088608
0.654241 -0.436162 0.088608
0.539689 0.415775 0.271208
0.197291 0.180136 -0.348706
0.390672 0.086433 -0.325581
0.403527 0.086433 -0.325581
0.384012 0.14739 -0.362581
0.429921 0.120089 -0.335003
-0.196634 0.314076 -0.145551
-0.214998 -0.380731 0.230783
-0.251629 0.008874 0.149761
-0.314474 -0.462412 0.185904
0.033082 -0.134054 0.11533
-0.522457 -0.346101 0.29262
-0.717997 0.575301 0.191899
0.219102 -0.347957 -0.11626
0.662578 0.410742 0.237635
0.079729 -0.208897 -0.04483
0.556844 -0.042614 -0.155829
-0.040906 0.127247 -0.214411
-0.7402 0.186086 0.314203
-0.276285 0.025087 -0.11626
0.272234 0.198219 -0.372859
-0.066928 -0.110695 0.023174
0.13711 0.015205 -0.112834
0.613064 -0.397562 0.121326
-0.0363 -0.003195 -0.040547
-0.169131 0.345816 0.023174
-0.155505 0.473004 0.023174
-0.532647 0.304304 -0.127394
0.231436 0.121173 -0.301429
-0.702127 -0.086258 0.516502
-0.67644 -0.089469 0.516502
-0.689283 -0.089469 0.516502
0.348455 -0.227866 -0.081829
-0.353173 0.237242 -0.09382
-0.756878 0.116019 0.264357
-0.144011 -0.263174 0.314203
-0.206104 0.098348 -0.123968
-0.293706 0.004774 -0.123968
-0.705338 -0.09268 0.516502
-0.692494 -0.099101 0.516502
-0.707727 -0.43283 0.264357
0.263755 -0.363549 -0.123968
0.184118 -0.38943 -0.123968
-0.178006 0.044862 -0.061103
-0.742112 0.17665 0.307351
-0.769031 -0.300317 0.271208
-0.285742 0.022692 -0.123968
-0.22718 0.297022 -0.217837
0.172172 -0.397394 -0.123968
-0.228005 0.428842 -0.123968
-0.317596 0.014728 -0.123968
0.184118 -0.377485 -0.123968
-0.144149 -0.099339 0.023174
0.148281 -0.41133 -0.123968
0.281674 -0.349612 -0.123968
-0.212581 -0.45536 0.179908
0.539557 -0.34692 0.11533
0.493735 0.421846 0.264357
-0.207681 -0.506489 0.143765
-0.528635 0.38106 -0.123968
0.7192 0.50759 0.093747
-0.75055 0.1879 0.307351
-0.300425 0.19894 -0.061103
-0.113143 -0.410789 0.185904
0.499543 0.043884 -0.255693
-0.088586 0.169165 -0.255693
0.475184 0.002592 -0.189402
-0.186196 0.42486 -0.123968
-0.662093 -0.552563 0.198922
-0.777447 -0.40559 0.285768
0.084765 0.202017 -0.348706
-0.194619 -0.066648 -0.005261
-0.021516 0.142932 -0.247129
0.678199 -0.445745 0.088608
-0.457962 0.180612 0.013753
0.360739 0.502569 0.204917
0.610677 -0.39433 0.127321
0.19399 0.492597 0.271208
0.591727 -0.054114 -0.159255
-0.651586 -0.439749 0.250482
-0.057025 -0.007234 -0.027529
0.686829 0.428631 0.179908
-0.490265 -0.540902 0.161751
-0.393929 -0.51555 0.161751
0.542923 -0.334582 0.179908
-0.472776 0.098729 0.143765
-0.039413 -0.26917 -0.053395
-0.001955 0.194342 -0.318558
0.362048 0.508063 0.198922
-0.360972 -0.502874 0.161751
0.359012 0.53654 0.161751
-0.467449 -0.538367 0.161751
-0.47759 -0.538367 0.161751
-0.7678 0.066869 0.264357
-0.500307 0.122854 0.11533
0.730402 0.482524 0.11533
0.660696 0.460485 0.161751
0.298168 0.549216 0.161751
0.579571 -0.350765 0.161751
-0.573926 -0.044011 0.161751
-0.284918 -0.490199 0.161751
-0.302664 -0.495269 0.161751
-0.183511 -0.480058 0.161751
-0.23675 -0.480058 0.161751
0.404645 0.518794 0.161751
0.516192 -0.373581 0.161751
-0.210125 -0.469409 0.167918
0.175171 0.097494 -0.232569
0.331312 0.471259 0.257333
-0.11782 -0.035635 -0.000122
-0.287813 -0.337439 0.27806
-0.153908 -0.070932 -0.009543
-0.47973 0.167216 0.042188
-0.377496 0.018951 -0.074121
-0.774517 -0.248188 0.271208
0.105511 0.078729 -0.192828
-0.506946 0.296138 -0.134417
-0.236331 -0.380731 0.230783
-0.331595 -0.479053 0.173913
-0.430163 -0.476989 0.198922
-0.409315 -0.46396 0.198922
-0.135949 0.47207 0.132631
-0.221925 0.167367 -0.20499
0.701558 0.48 0.121326
-0.777262 -0.256419 0.271208
0.307756 0.053596 -0.263573
0.069705 -0.139984 0.099057
-0.103677 0.49165 0.307351
-0.212819 -0.522286 0.132631
0.03713 0.102613 -0.208416
0.07227 -0.14683 0.121326
-0.338101 -0.431835 0.204917
0.024091 -0.060597 0.018035
-0.007649 0.568706 0.24363
-0.239285 -0.137812 0.161751
0.660287 -0.365122 0.138626
0.479501 -0.132848 -0.179125
-0.152658 0.465533 0.032595
-0.485626 0.11796 0.11533
-0.248968 0.016018 0.138626
-0.070814 0.233189 -0.313419
0.723153 0.420345 0.185904
-0.131639 0.092612 -0.138699
0.647213 0.499651 0.11533
-0.20617 0.302823 -0.195569
-0.336348 -0.4379 0.198922
0.091936 -0.26774 -0.069839
0.397088 -0.158129 0.042188
-0.023402 -0.226777 -0.040547
-0.526027 -0.532778 0.173913
-0.065117 -0.322185 -0.069839
-0.222133 0.440249 -0.11626
-0.138058 -0.432233 0.179908
0.371688 0.539075 0.161751
-0.576988 0.171554 0.08347
-0.183925 -0.433214 0.191899
-0.526915 0.141934 0.093747
-0.564636 -0.069899 0.179908
-0.735877 -0.416675 0.285768
0.635074 0.517382 0.088608
0.730567 -0.463136 0.08347
0.682846 -0.470293 0.08347
0.521072 -0.189813 -0.127394
-0.088997 0.176072 -0.263573
-0.182398 0.002221 -0.000122
0.670625 0.465847 0.155756
-0.788235 -0.381847 0.314203
0.669035 -0.288029 0.191899
0.496115 0.083562 -0.31085
-0.155482 0.165824 -0.229999
-0.193314 0.425354 -0.127394
0.314693 -0.364439 -0.127394
-0.330238 0.403525 -0.127394
0.324221 0.523449 0.191899
-0.203236 0.105864 -0.127394
-0.302457 0.417416 -0.127394
-0.743528 0.18221 0.250482
-0.259237 -0.387807 0.237635
0.414868 -0.105092 -0.027529
-0.348098 0.403525 -0.127394
0.096338 -0.071753 0.013753
0.002069 0.149518 -0.258263
-0.100303 0.175546 -0.258263
0.170377 0.116551 -0.258263
-0.775748 -0.263008 0.27806
-0.228222 -0.047373 0.042188
0.512557 -0.169144 0.018035
0.110026 -0.076427 0.018035
-0.15456 -0.123916 0.018035
-0.371655 0.138407 0.018035
-0.143139 0.501551 0.057604
-0.174912 -0.013107 0.018035
0.189175 -0.108086 0.018035
0.010523 -0.096779 0.018035
-0.156821 -0.026675 0.018035
0.193698 -0.121654 0.018035
-0.769031 -0.311291 0.271208
0.682349 0.474549 0.132631
0.678719 0.472321 0.037905
0.340328 0.025976 -0.235138
-0.023098 0.036282 -0.097417
-0.749097 0.128009 0.299643
-0.01254 -0.146034 -0.009543
-0.321433 -0.043936 -0.049112
-0.307472 -0.385128 0.237635
-0.207232 -0.421366 0.204917
-0.080595 0.231559 -0.313419
0.309047 -0.090588 -0.013826
0.092315 -0.165833 0.138626
-0.315432 0.349031 -0.176555
0.086443 0.552767 0.237635
0.273759 0.101547 -0.31085
-0.11404 -0.031185 0.004332
0.350028 0.035612 -0.249698
0.358664 -0.259737 -0.097417
0.31734 0.034456 -0.241133
0.431465 -0.114105 -0.023247
-0.230156 0.440249 -0.11626
-0.753363 0.140088 0.307351
-0.133792 -0.426276 0.185904
-0.694663 -0.544695 0.191899
-0.322539 0.290361 -0.182551
0.090993 -0.135811 0.078331
-0.504748 0.320697 -0.148977
-0.102163 -0.360399 0.22376
0.379097 0.092112 -0.33072
0.055998 -0.035545 -0.018964
-0.087882 0.5338 0.264357
0.160116 0.06451 -0.185976
0.627777 0.459852 0.173913
0.545053 -0.315286 0.185904
0.358335 0.096904 -0.33072
0.323198 0.140025 -0.33072
0.357925 0.515671 0.191899
0.498568 -0.142901 -0.018964
-0.199572 0.209317 -0.274707
0.444517 -0.007559 -0.223833
-0.678689 -0.105101 0.507081
0.564906 -0.493919 0.057604
0.20747 -0.002079 -0.155829
0.495597 0.014489 -0.214411
0.415897 0.416834 0.29262
-0.149348 0.172341 -0.241133
-0.142018 -0.47046 0.155756
0.509106 -0.379605 0.155756
-0.184922 -0.202944 0.155756
-0.389345 -0.523458 0.155756
-0.505241 0.137827 0.099057
-0.665918 -0.095523 0.507081
0.37453 0.160707 -0.371146
-0.543292 0.102429 0.155756
0.307207 0.559225 0.155756
0.438441 0.521369 0.155756
0.587342 0.480989 0.155756
-0.154637 -0.475508 0.155756
0.723624 0.44818 0.155756
-0.381774 -0.520935 0.155756
0.658007 -0.341749 0.155756
0.589075 0.388339 0.271208
-0.119394 0.108905 -0.162852
-0.28808 0.192032 -0.053395
0.267801 0.129438 -0.301429
-0.404487 -0.523458 0.155756
-0.417106 -0.528506 0.155756
0.635293 -0.356891 0.155756
0.55201 -0.298846 0.155756
0.266828 0.56932 0.155756
0.378643 -0.003436 -0.20499
-0.250539 0.004003 0.155756
-0.16978 -0.20042 0.155756
0.74129 -0.334178 0.155756
-0.747995 -0.162328 0.29262
-0.750779 -0.407358 0.29262
-0.096837 0.531008 0.271208
0.627886 0.524569 0.088608
0.012564 -0.074356 0.023174
0.341457 -0.307858 -0.108551
-0.302879 0.134394 -0.040547
0.562447 -0.426908 0.105053
-0.286161 0.371516 -0.162852
-0.00493 -0.288625 -0.061103
-0.198204 0.313106 -0.176555
0.140148 0.56493 0.191899
0.552854 -0.434704 0.099057
-0.132508 0.521901 0.110192
0.632973 0.388339 0.271208
-0.062939 0.139637 -0.226402
0.567991 -0.448142 0.088608
-0.017497 0.16387 -0.272138
0.523953 0.058612 -0.282415
-0.541915 0.127116 0.110192
-0.264815 -0.439687 0.204917
-0.224145 -0.486728 0.173913
0.480368 -0.128391 -0.185976
0.079922 -0.163866 0.143765
0.260011 0.060753 -0.261003
-0.38585 0.421469 -0.108551
0.125855 -0.08095 0.018035
-0.77584 -0.062089 0.29262
-0.221481 -0.156939 0.149761
0.275581 0.057293 -0.261003
0.132945 0.164726 -0.313419
0.02536 0.181026 -0.313419
0.058164 -0.042171 -0.013826
-0.379023 -0.402787 0.24363
0.578819 -0.094338 -0.130991
0.120027 -0.420634 -0.130991
0.647832 -0.362631 0.138626
0.511592 -0.466111 0.078331
-0.340439 -0.006418 -0.089538
0.606642 -0.449478 0.078331
0.537731 -0.406705 0.078331
0.69694 -0.451854 0.078331
0.547236 -0.439973 0.078331
0.105251 -0.135811 0.078331
0.713574 -0.487498 0.078331
-0.371673 -0.009644 -0.040547
0.412947 -0.031004 -0.185976
-0.76563 -0.274477 0.314203
-0.77148 0.007703 0.299643
0.267491 0.03548 -0.226402
-0.182759 -0.092526 0.023174
0.494516 -0.072269 -0.138699
0.57218 -0.427457 0.099057
0.42049 -0.012728 -0.210985
0.675554 -0.468488 0.078331
0.485453 -0.477993 0.078331
0.337251 0.060563 -0.279846
0.037368 0.220964 -0.332433
0.667761 0.466909 0.138626
-0.545872 0.011644 0.24363
0.465061 0.526382 0.143765
0.52671 -0.161883 0.013753
-0.561612 0.209904 0.013753
0.16619 -0.101045 0.013753
0.630086 -0.405642 0.11533
0.175202 -0.096538 0.013753
-0.052376 -0.110058 0.013753
-0.04111 -0.150617 0.013753
0.348703 -0.121325 0.013753
0.432074 -0.139351 0.013753
0.477139 -0.150617 0.013753
-0.163733 -0.357039 0.24363
-0.767487 -0.000831 0.29262
0.490658 -0.155124 0.013753
0.326312 0.072489 -0.293721
0.365788 -0.0016 -0.20499
0.073377 -0.190838 -0.036265
-0.492769 -0.522545 0.173913
0.406741 0.105716 -0.325581
-0.745211 -0.134484 0.29262
-0.135632 0.512266 0.099057
-0.326871 -0.029021 -0.069839
-0.17409 -0.349341 0.257333
-0.139309 -0.392239 0.22376
-0.302242 -0.294256 0.314203
-0.684036 -0.450565 0.250482
0.290111 -0.162649 0.062743
0.13008 0.131221 -0.263573
0.030466 -0.405332 -0.112834
0.459827 0.45533 0.250482
-0.121295 0.100664 -0.152403
-0.313615 0.416896 -0.123968
-0.304365 -0.052469 -0.049112
-0.235435 -0.329169 0.27806
0.009634 -0.113991 0.037905
0.214605 0.076021 -0.263573
-0.120676 0.444915 0.24363
-0.747995 0.210786 0.29262
-0.137604 0.450265 0.127321
-0.011784 -0.254293 -0.053395
-0.551562 0.214915 -0.005261
-0.204872 -0.45022 0.179908
0.47018 -0.083091 -0.077547
0.305448 0.059639 -0.272138
-0.322397 -0.444922 0.204917
-0.199005 0.352955 -0.166278
0.504281 -0.081392 -0.152403
-0.268786 0.015683 -0.1017
-0.692149 -0.442453 0.250482
-0.317894 0.216335 -0.077547
0.276995 0.448862 0.314203
-0.282856 0.069673 -0.089538
0.172366 -0.229526 -0.061103
0.47497 -0.17721 0.047327
0.655822 -0.316594 0.167918
-0.165354 -0.230297 0.204917
-0.113299 0.467904 0.271208
0.355158 0.54913 0.155756
0.097109 -0.371587 -0.105125
0.350193 0.531525 0.167918
-0.754328 0.081541 0.314203
0.498307 -0.159285 -0.220407
0.24423 0.484056 0.27806
0.519532 0.538863 0.093747
0.228007 -0.30465 -0.097417
-0.288451 0.204327 -0.065556
-0.304364 -0.000986 -0.11626
0.274117 -0.215389 -0.069839
0.305589 0.080502 -0.29629
-0.242533 -0.443112 0.198922
-0.14288 0.463951 0.099057
0.173122 -0.20966 -0.053395
0.336921 0.131951 -0.322841
-0.539997 0.002955 0.217764
-0.224057 -0.128467 0.138626
0.625316 -0.385903 0.132631
0.759794 0.386024 0.217764
0.537275 0.446194 0.22376
-0.289025 0.217742 -0.089538
-0.210182 -0.178871 0.143765
-0.288371 -0.431835 0.204917
0.538165 0.460204 0.210913
0.345489 -0.001423 -0.198995
0.570386 0.536548 0.088608
-0.750141 0.275619 0.257333
0.171936 -0.122382 0.027456
0.253176 -0.227954 -0.069839
-0.098024 -0.103563 0.018035
0.386146 -0.014359 -0.198995
-0.361664 -0.396732 0.230783
-0.107682 0.001582 -0.023247
0.015146 -0.34493 -0.085255
0.54052 0.454712 0.217764
0.202624 -0.399635 -0.134417
0.36819 -0.372041 -0.134417
-0.578552 0.275801 -0.065556
0.356364 -0.372041 -0.134417
0.393813 -0.35036 -0.134417
0.346509 -0.362186 -0.134417
0.490394 -0.040908 -0.134417
-0.191582 0.414399 -0.134417
-0.287278 -0.415186 0.210913
0.677928 0.463603 0.149761
-0.168723 -0.488565 0.149761
-0.553107 0.114391 0.149761
-0.301876 -0.508664 0.149761
-0.407393 -0.538812 0.149761
0.040313 0.142058 -0.261003
-0.457671 0.288253 -0.134417
0.383959 -0.352331 -0.134417
0.220363 -0.401606 -0.134417
0.312553 -0.33093 -0.119686
0.522164 0.506313 0.149761
-0.196359 -0.503639 0.149761
0.69049 -0.337826 0.149761
0.481967 0.521386 0.149761
-0.198871 -0.491078 0.149761
0.328716 0.559071 0.149761
0.172101 0.003375 -0.105125
-0.121569 0.436401 0.250482
-0.121703 -0.422844 0.191899
0.582632 -0.46075 0.08347
0.00169 -0.159457 -0.027529
-0.207205 0.423369 -0.127394
-0.774676 -0.422218 0.285768
0.670667 -0.478515 0.073192
0.060581 0.012091 -0.089538
-0.46893 0.177748 0.023174
0.228048 -0.230048 -0.069839
0.09102 0.159751 -0.298859
-0.028432 -0.276721 -0.057677
0.64202 -0.486908 0.057604
0.325311 0.068364 -0.285841
-0.498309 0.207649 -0.018964
-0.748936 0.266039 0.250482
0.053446 -0.092526 0.023174
0.442844 0.464337 0.237635
-0.738648 0.226285 0.285768
-0.466914 0.193157 0.008614
-0.181036 0.111294 -0.145551
0.129598 0.533721 0.24363
-0.348994 0.285831 -0.173129
0.456367 0.546139 0.11533
-0.17489 -0.156074 0.11533
0.557076 -0.483248 0.073192
0.611505 -0.457216 0.073192
0.630437 -0.466682 0.073192
0.616238 -0.464315 0.073192
0.696698 0.529603 0.073192
-0.126999 0.416595 0.230783
0.561286 -0.357286 0.127321
-0.655467 -0.11103 0.49766
0.691965 0.536703 0.073192
0.602039 -0.464315 0.073192
0.625704 -0.459582 0.073192
0.09798 -0.130643 0.073192
0.71563 -0.452483 0.073192
0.564176 -0.476147 0.073192
0.552343 -0.466682 0.073192
0.541338 -0.295732 0.204917
0.117304 0.20236 -0.352989
-0.170106 -0.055076 -0.027529
-0.671343 -0.120555 0.49766
0.38122 -0.313775 -0.123968
0.229244 0.151664 -0.321128
0.528868 0.501048 0.161751
0.238422 -0.31998 -0.108551
-0.511531 0.222326 -0.031811
-0.330156 -0.012587 -0.089538
-0.505269 0.189104 0.023174
0.402617 0.494717 0.204917
0.542371 -0.118717 -0.189402
0.550632 -0.303746 0.179908
-0.050551 -0.135055 0.042188
-0.107959 -0.118684 0.008614
0.360926 -0.120928 0.008614
0.237535 -0.100737 0.008614
-0.157315 -0.085033 0.008614
-0.462294 -0.410003 0.250482
-0.251555 0.038176 -0.031811
0.522113 -0.417227 0.121326
-0.542634 0.221915 -0.013826
0.376072 0.502708 0.191899
0.203883 -0.09625 0.008614
-0.211158 -0.024459 0.008614
-0.143854 -0.116441 0.008614
-0.137124 -0.123171 0.008614
-0.493835 0.190914 0.008614
-0.137124 -0.026703 0.008614
0.233048 -0.08952 0.008614
-0.087767 -0.100737 0.008614
-0.750141 0.259316 0.257333
-0.331154 0.016911 -0.119686
-0.312136 0.206 -0.057677
0.407243 0.034193 -0.269568
-0.109059 -0.50476 0.099057
0.452493 0.119964 -0.344424
-0.591304 -0.12193 0.08347
-0.195608 -0.32501 0.271208
-0.105823 0.120695 -0.185976
0.674122 0.499969 0.110192
0.373752 -0.045318 -0.1017
-0.237849 -0.358624 0.250482
-0.753661 0.219263 0.230783
0.386478 -0.001879 -0.214411
0.11669 -0.295185 -0.077547
-0.43498 0.149445 0.062743
0.240373 -0.000458 -0.166278
-0.111854 0.563486 0.237635
0.037449 0.204304 -0.335003
0.339181 -0.051901 -0.077547
0.137715 -0.266814 -0.074121
0.105323 0.114404 -0.238564
-0.750141 0.185951 0.257333
-0.148337 -0.216374 0.179908
0.382897 0.505457 0.198922
0.596337 -0.425041 0.099057
-0.546124 -0.404595 0.250482
0.620699 0.52936 0.088608
-0.411306 0.321728 -0.189402
0.389944 -0.299777 -0.108551
0.209506 0.059204 -0.241133
-0.744706 0.24573 0.257333
0.606419 -0.087042 -0.119686
-0.146926 0.513285 0.052465
-0.562266 -0.526941 0.185904
0.262581 0.478879 0.271208
0.618079 -0.412963 0.099057
-0.312797 -0.417099 0.217764
0.331907 0.053596 -0.263573
-0.289441 -0.440506 0.198922
-0.29055 0.417416 -0.127394
0.009534 0.15467 -0.266999
-0.109374 0.570953 0.217764
0.651078 -0.225872 0.047327
0.335431 0.179154 -0.387419
-0.11102 0.100224 -0.155829
0.460544 -0.153315 0.018035
-0.192735 0.343323 -0.145551
0.460556 0.135492 -0.375428
-0.137955 0.517531 0.08347
0.391628 0.5053 0.191899
-0.175409 -0.147785 0.105053
0.466122 -0.137196 -0.155829
-0.272161 0.003617 -0.097417
-0.118999 0.483261 0.230783
0.151871 0.087236 -0.214411
0.413409 0.003028 -0.229999
-0.175348 -0.059535 -0.023247
-0.128749 -0.362421 0.24363
-0.307234 -0.028709 0.257333
0.02735 0.15827 -0.282415
0.506412 0.065819 -0.293721
-0.748936 0.168689 0.250482
0.694331 -0.469048 0.073192
-0.208717 -0.049442 0.027456
-0.240552 -0.377553 0.250482
-0.245195 -0.516492 0.143765
0.33951 0.150442 -0.348706
0.328236 0.526172 0.185904
0.252526 -0.084186 -0.009543
0.357573 0.185365 -0.391872
-0.753661 0.203264 0.230783
-0.533831 0.219715 -0.013826
-0.176241 0.012656 -0.018964
0.239998 0.144639 -0.315989
0.2099 -0.42166 -0.138699
-0.274929 0.404708 -0.138699
-0.416255 0.38508 -0.138699
0.384596 -0.360811 -0.138699
-0.247449 0.402745 -0.138699
-0.119035 -0.394156 0.210913
0.22454 0.466543 0.299643
0.300192 -0.39418 -0.138699
-0.460934 0.316188 -0.173129
-0.134758 -0.079951 -0.005261
0.300895 -0.078813 -0.031811
-0.373094 0.00075 -0.053395
0.38067 -0.374552 -0.138699
0.287397 0.140356 -0.321128
0.378482 0.041521 -0.263573
0.6209 0.531919 0.078331
0.212916 0.130855 -0.293721
0.689366 -0.474303 0.068053
-0.186183 -0.331798 0.264357
0.264375 0.036835 -0.232569
-0.384682 0.34784 -0.169703
0.306433 -0.09547 -0.005261
0.492615 0.531621 0.121326
0.0855 -0.004075 -0.077547
-0.276411 -0.4379 0.198922
-0.097464 0.132904 -0.202421
0.16513 0.09115 -0.226402
0.610113 -0.37144 0.143765
0.677637 -0.356435 0.143765
-0.197677 -0.181372 0.143765
-0.365238 -0.5365 0.143765
-0.337728 -0.531498 0.143765
0.397536 0.543889 0.143765
-0.353378 0.092338 -0.031811
0.096384 0.578473 0.204917
0.737659 0.448854 0.143765
-0.4233 -0.491336 0.179908
0.589553 -0.436162 0.088608
0.500831 -0.255131 0.068053
0.368021 0.534072 0.167918
0.547183 0.471597 0.191899
-0.160592 -0.430622 0.191899
0.215418 0.469738 0.29262
-0.419243 0.287661 -0.148977
0.380628 0.006747 -0.226402
0.339857 -0.101592 -0.013826
0.545608 -0.474303 0.068053
-0.126368 0.168805 -0.241133
-0.068032 0.151128 -0.241133
0.133493 0.112237 -0.241133
-0.179497 -0.4073 0.210913
0.227159 -0.269651 -0.089538
-0.736487 0.255401 0.307351
-0.36937 0.308387 -0.195569
0.381395 -0.132962 0.018035
0.698793 -0.502583 0.068053
0.472551 -0.500226 0.068053
0.097838 -0.116087 0.068053
0.637519 -0.462519 0.068053
0.585672 -0.471946 0.068053
0.687009 0.534359 0.068053
-0.778675 -0.031474 0.307351
0.675226 -0.474303 0.068053
0.349351 -0.037184 -0.1017
0.046579 0.57587 0.210913
0.529487 0.521788 0.121326
-0.377454 0.346545 -0.173129
-0.759133 0.060426 0.29262
0.463124 -0.186787 0.068053
-0.54191 0.13862 0.105053
0.111418 0.580377 0.185904
-0.125217 -0.026715 0.004332
0.015607 -0.080362 0.004332
0.245844 -0.091538 0.004332
0.550632 0.487736 0.179908
-0.045726 0.065528 -0.134417
-0.756349 0.046504 0.29262
-0.019888 -0.143381 0.032595
0.479601 0.031651 -0.229999
-0.041888 0.07936 -0.152403
0.352009 -0.008605 -0.189402
-0.220258 -0.522286 0.132631
-0.436732 0.289605 -0.148977
0.612608 0.478677 0.149761
-0.302606 0.295405 -0.195569
-0.277716 0.395437 -0.142125
-0.094498 -0.09625 0.008614
-0.360022 0.366597 -0.155829
0.415843 0.161285 -0.387419
-0.328648 -0.422382 0.217764
0.722806 -0.290897 0.179908
0.28164 -0.216754 -0.074121
0.526942 0.030132 -0.253124
-0.206228 0.414523 -0.138699
-0.186883 -0.45022 0.179908
-0.193432 -0.150697 0.110192
0.017795 -0.238085 -0.049112
-0.548724 0.145073 0.099057
0.167743 0.174114 -0.335003
0.102385 -0.103985 0.062743
0.596513 0.52443 0.093747
-0.355773 -0.459831 0.185904
0.462107 0.548708 0.110192
0.055171 -0.128367 0.105053
0.057151 0.583636 0.198922
-0.263831 0.025035 -0.077547
0.433596 0.531678 0.138626
-0.758056 -0.15216 0.271208
-0.48896 0.164909 0.042188
0.108646 0.022909 -0.119686
-0.65456 -0.11373 0.488238
0.565313 0.463761 0.198922
0.532053 -0.40262 0.088608
-0.317012 0.402028 -0.130991
-0.695601 -0.116886 0.488238
-0.679816 -0.135828 0.488238
0.405782 0.157155 -0.37971
0.523959 -0.193967 -0.138699
0.367999 -0.019767 -0.185976
0.657553 -0.383423 0.132631
-0.6943 -0.363347 0.307351
-0.598402 -0.532103 0.185904
0.549486 0.493608 0.155756
0.211084 -0.309653 -0.1017
-0.068149 -0.107805 0.013753
-0.333321 0.035592 -0.108551
0.33222 -0.28646 -0.105125
0.126349 -0.088191 0.027456
-0.215693 -0.05191 0.037905
0.646033 -0.285262 0.204917
0.463297 0.450297 0.24363
0.096689 0.563027 0.217764
0.54196 -0.019731 -0.182551
-0.012183 0.098221 -0.185976
0.020617 -0.126638 0.052465
-0.154947 0.456376 0.032595
0.352048 -0.005031 -0.195569
-0.262065 0.395437 -0.142125
0.043483 0.555251 0.24363
0.661464 0.512401 0.093747
0.64285 0.484347 0.138626
0.074633 -0.143386 0.110192
-0.157996 -0.043989 -0.04483
0.289637 -0.349612 -0.123968
-0.118566 -0.077559 -0.009543
0.450045 -0.181685 -0.142125
-0.763591 -0.294735 0.285768
-0.344665 -0.464325 0.191899
0.428251 0.176506 -0.408145
-0.168705 -0.037563 -0.04483
-0.334027 -0.32522 0.285768
0.357485 -0.027018 -0.1017
-0.560799 0.275433 -0.081829
0.551408 -0.339999 0.127321
-0.161967 0.108411 -0.152403
-0.077707 0.124242 -0.198995
0.497182 0.075203 -0.298859
-0.164109 0.395773 -0.013826
0.233474 0.005032 -0.173129
0.285545 0.145352 -0.328151
-0.574602 -0.148177 0.08347
0.259394 -0.252721 -0.081829
0.102139 0.557632 0.22376
-0.341468 -0.323826 0.29262
-0.732851 -0.517488 0.217764
0.725662 -0.332802 0.149761
-0.18669 -0.183271 0.138626
-0.144342 0.387194 0.138626
0.650323 -0.370104 0.138626
0.620145 0.476165 0.149761
0.525767 0.51424 0.138626
0.049965 -0.148395 0.138626
0.590536 -0.372596 0.138626
0.712601 0.454453 0.138626
-0.136868 -0.504624 0.138626
0.710109 -0.345193 0.138626
0.35139 0.554098 0.138626
0.503347 -0.397506 0.138626
-0.771905 -0.056396 0.285768
-0.08159 0.181448 -0.277276
-0.514411 0.319087 -0.159255
0.044016 0.153618 -0.272138
-0.046847 0.5225 0.299643
0.324011 0.453031 0.29262
0.478062 -0.168199 -0.182551
-0.360125 0.337344 -0.182551
0.433105 -0.099672 -0.04483
0.01218 -0.028972 -0.018964
0.132541 0.103211 -0.229999
0.744356 -0.305132 0.161751
0.742901 0.424035 0.173913
0.558816 -0.381983 0.127321
0.352041 -0.111347 -0.000122
-0.16013 -0.002232 -0.000122
0.262138 0.078881 -0.282415
-0.044335 -0.10244 -0.000122
0.098666 0.577893 0.191899
0.051837 0.581128 0.210913
-0.140088 -0.082398 -0.000122
0.276328 -0.093532 -0.000122
0.426173 0.494717 0.204917
-0.249563 0.036507 -0.023247
0.153686 0.140716 -0.285841
-0.153391 0.407567 0.062743
0.720424 -0.382207 0.110192
0.147797 -0.076058 0.008614
0.112541 0.557744 0.217764
-0.328448 0.303276 -0.20499
0.31471 0.462417 0.271208
0.270027 0.520665 0.210913
0.161732 -0.121211 0.042188
-0.123389 0.454154 0.22376
0.496609 -0.258858 0.062743
0.355452 -0.273052 -0.1017
0.367026 -0.096394 -0.027529
-0.431706 -0.515253 0.167918
0.318666 0.559071 0.149761
0.720886 -0.277659 0.191899
0.647002 -0.454849 0.073192
-0.42374 -0.314034 0.314203
-0.142278 -0.443237 0.173913
-0.037182 -0.336772 -0.077547
0.193632 0.528649 0.237635
0.521356 0.451501 0.22376
-0.571158 -0.131201 0.110192
0.238131 -0.280925 -0.085255
-0.535478 0.270016 -0.09382
0.393353 0.020313 -0.241133
-0.310289 -0.445718 0.198922
-0.199812 0.30676 -0.155829
-0.052376 -0.132591 0.013753
-0.194404 0.315015 -0.130991
0.347161 0.160202 -0.366863
-0.026237 -0.408873 -0.108551
0.558365 0.509265 0.132631
0.041 0.573928 0.230783
0.568622 -0.470864 0.078331
-0.66055 -0.352098 0.307351
-0.215143 0.425354 -0.127394
0.548446 -0.336309 0.132631
0.61185 -0.263872 0.217764
0.183388 0.007157 -0.112834
0.026442 0.035327 -0.112834
-0.311647 0.228024 -0.089538
-0.206497 -0.086399 0.037905
-0.641717 -0.539148 0.204917
-0.174035 -0.457929 0.179908
-0.066312 0.070145 -0.127394
0.256287 -0.095759 -0.000122
-0.538306 0.26624 -0.077547
0.366864 -0.391759 -0.145551
0.386362 -0.380061 -0.145551
-0.35061 -0.472737 0.185904
0.368821 0.426962 0.307351
0.624961 0.445671 0.191899
0.491651 -0.079788 -0.145551
0.07021 0.58109 0.204917
-0.489108 0.358921 -0.145551
0.031495 0.052799 -0.145551
-0.301925 0.388169 -0.145551
-0.195523 0.294166 -0.134417
0.098639 0.49732 0.299643
0.050108 -0.285587 -0.074121
-0.476244 0.441709 -0.085255
-0.193914 -0.401247 0.217764
0.527583 0.508876 0.143765
0.285168 0.19597 -0.375428
-0.170836 -0.208796 0.161751
-0.448675 0.141502 0.073192
-0.419955 -0.538812 0.149761
0.118058 0.554978 0.22376
0.396884 -0.325711 -0.130991
-0.319637 -0.45725 0.185904
0.645048 -0.253019 -0.049112
0.062352 0.583756 0.210913
-0.503049 0.247486 -0.061103
0.2388 -0.285088 -0.09382
-0.588077 -0.539847 0.185904
0.293711 -0.306729 -0.105125
-0.274627 -0.360209 0.257333
0.147325 0.111712 -0.244559
0.600725 -0.405642 0.11533
0.149708 0.132646 -0.274707
0.194008 0.088347 -0.274707
0.378531 0.477735 0.237635
-0.024536 -0.250042 -0.053395
-0.406046 0.452033 -0.085255
0.290062 -0.076647 -0.031811
0.164996 0.181233 -0.344424
-0.25902 0.04456 -0.065556
-0.444199 0.145506 0.068053
0.502131 -0.102673 -0.179125
-0.679038 -0.144692 0.479502
-0.132073 0.409375 0.191899
0.431782 -0.152013 0.027456
-0.663335 -0.135271 0.479502
-0.197899 -0.412558 0.210913
-0.174665 0.004297 -0.005261
0.256793 -0.043787 -0.061103
-0.346263 -0.418771 0.22376
-0.381485 -0.430308 0.217764
-0.146114 -0.237241 0.198922
0.675803 -0.426579 0.088608
0.470533 -0.183004 -0.159255
0.293869 0.06762 -0.277276
0.079696 0.072712 -0.179125
-0.006259 0.033777 -0.105125
0.293309 -0.317873 -0.11626
-0.200012 0.307859 -0.169703
-0.50063 0.16191 0.052465
0.459153 -0.061584 -0.1017
0.321872 0.145513 -0.335003
-0.141429 0.48085 0.105053
0.635376 0.471891 0.138626
-0.558525 -0.007515 0.22376
0.45237 0.472727 0.22376
-0.174035 -0.447651 0.179908
0.426765 0.458977 0.237635
-0.505377 0.156485 0.062743
-0.502649 0.454899 -0.074121
0.002303 0.21937 -0.332433
0.043107 0.179639 -0.305711
0.744342 -0.363586 0.132631
0.054988 -0.150333 0.132631
0.645154 -0.383423 0.132631
0.669951 -0.368545 0.132631
-0.232657 -0.517327 0.132631
-0.535179 0.112514 0.132631
0.262713 -0.284235 -0.097417
-0.502949 0.141235 0.088608
0.568283 -0.375985 0.132631
-0.245055 -0.524766 0.132631
0.568283 -0.385903 0.132631
0.585642 0.494387 0.132631
-0.569138 0.024324 0.22376
0.570022 -0.036668 -0.179125
0.168976 -0.0733 -0.005261
0.03152 -0.046695 -0.005261
-0.055257 0.109458 -0.185976
0.389841 0.174433 -0.399581
-0.105937 -0.037827 -0.005261
0.017795 -0.246619 -0.049112
-0.282779 -0.371079 0.257333
-0.22259 -0.099002 0.057604
0.548549 -0.496256 0.057604
0.40671 -0.179365 0.027456
0.042944 0.173013 -0.298859
0.182278 -0.0733 -0.005261
0.288696 -0.093253 -0.005261
0.239921 -0.084385 -0.005261
0.082511 -0.055564 -0.005261
0.479361 -0.135377 -0.005261
0.05963 0.552559 0.24363
0.503748 -0.14868 -0.005261
0.602295 -0.498592 0.057604
-0.245957 -0.05694 0.057604
-0.1194 0.012179 -0.031811
-0.056929 -0.40807 -0.105125
0.003408 0.198916 -0.325581
0.567951 -0.079621 -0.148977
0.041318 0.062239 -0.148977
-0.219083 0.396485 -0.148977
0.375565 -0.388606 -0.148977
0.466323 -0.152863 -0.169703
0.470787 -0.130147 -0.148977
0.249251 -0.017436 -0.148977
0.026027 0.06548 -0.155829
0.422665 -0.147455 0.027456
0.597853 0.415312 0.24363
-0.08433 0.163467 -0.249698
0.503297 0.074685 -0.303142
-0.023236 -0.305433 -0.069839
0.520399 0.47116 0.204917
0.372676 0.43691 0.285768
-0.761918 -0.231939 0.29262
-0.162665 -0.188875 0.143765
0.353121 0.45693 0.271208
-0.338459 0.249715 -0.11626
-0.545056 0.298783 -0.119686
0.044613 0.033109 -0.11626
0.230603 0.069402 -0.261003
-0.12804 -0.066218 -0.018964
0.156903 0.0298 -0.138699
0.138324 0.143575 -0.288411
-0.406786 -0.308383 0.314203
0.630274 -0.34823 0.161751
-0.347005 0.226732 -0.077547
-0.031868 0.571397 0.24363
-0.250088 0.058812 -0.04483
-0.182651 0.12424 -0.162852
0.321359 -0.083346 -0.027529
-0.266158 -0.49233 0.167918
0.201412 0.114276 -0.303142
0.361678 0.022418 -0.235138
-0.438227 -0.41086 0.24363
0.292687 0.526125 0.204917
0.717583 -0.332737 0.138626
-0.766287 -0.448474 0.271208
0.418726 0.464337 0.237635
-0.421136 -0.502078 0.173913
0.53721 -0.494303 0.052465
-0.447109 0.154929 0.052465
0.297286 -0.061003 -0.049112
-0.162745 -0.466262 0.173913
0.096527 0.573242 0.210913
0.259313 0.0716 -0.272138
-0.754344 0.114605 0.250482
-0.524529 0.230992 -0.031811
-0.409877 0.150275 0.052465
-0.328909 0.356776 -0.166278
-0.180504 -0.139524 0.093747
-0.545238 -0.333814 0.314203
-0.181364 -0.028928 0.027456
-0.196997 0.336401 -0.159255
-0.140423 0.008131 -0.023247
0.210358 -0.216862 -0.061103
-0.598675 -0.343661 0.307351
0.024811 0.115415 -0.220407
-0.206513 0.395053 -0.152403
-0.44211 -0.339077 0.285768
0.329447 0.441025 0.307351
-0.39393 0.43359 -0.108551
-0.495991 0.156485 0.062743
-0.100172 0.015978 -0.04483
0.035287 -0.264462 -0.065556
-0.283259 -0.031103 -0.081829
-0.519602 0.266213 -0.085255
0.58147 0.472317 0.179908
-0.171739 0.026903 -0.040547
0.454749 -0.123182 -0.018964
-0.451209 0.184183 0.008614
-0.560461 -0.020947 0.198922
0.172887 -0.320982 -0.097417
0.080605 0.586242 0.198922
0.602992 0.486838 0.138626
0.042902 0.048046 -0.130991
0.482757 -0.050972 -0.123968
0.048515 -0.396752 -0.108551
-0.362526 0.420193 -0.11626
-0.122985 -0.006874 -0.009543
0.647721 -0.379512 0.127321
0.20614 -0.07314 -0.009543
0.296503 0.202769 -0.372859
0.300498 -0.083546 -0.023247
0.407103 0.55142 0.132631
-0.45124 0.109464 0.127321
-0.456526 0.196342 -0.009543
0.104586 0.092691 -0.214411
0.709461 0.472491 0.127321
0.122202 -0.057679 -0.009543
-0.076598 -0.022336 -0.009543
-0.094269 -0.042217 -0.009543
-0.242264 0.00417 -0.009543
-0.136238 -0.004666 -0.009543
-0.37058 -0.499971 0.167918
-0.244473 0.041721 -0.009543
0.675896 0.388401 0.24363
0.514364 -0.421495 0.127321
-0.530267 0.119341 0.127321
-0.191935 -0.169599 0.127321
0.497077 -0.423965 0.127321
-0.209222 -0.152312 0.127321
-0.269613 -0.127098 0.307351
0.145826 0.138488 -0.279846
-0.126911 0.199472 -0.279846
-0.158326 0.454782 -0.009543
0.553999 -0.46075 0.08347
-0.500631 0.109464 0.127321
0.533333 -0.197598 -0.152403
0.202856 -0.054885 -0.036265
0.062695 0.054465 -0.148977
-0.1129 -0.063648 -0.031811
-0.588218 -0.097084 0.110192
-0.151045 0.421647 0.062743
-0.361455 0.27691 -0.152403
0.163164 0.544365 0.22376
-0.310861 -0.377553 0.250482
0.192462 0.029004 -0.152403
-0.181335 0.114221 -0.152403
0.500408 -0.067835 -0.152403
-0.431178 0.292404 -0.152403
0.519775 -0.04072 -0.152403
-0.690406 -0.150282 0.470081
-0.677916 -0.162772 0.470081
-0.693529 -0.115935 0.470081
-0.656059 -0.156527 0.470081
-0.646692 -0.147159 0.470081
-0.048015 0.568706 0.24363
0.36131 -0.333684 -0.123968
0.35027 0.477208 0.24363
0.532556 -0.466379 0.052465
0.623308 -0.49663 0.052465
-0.668549 -0.153405 0.470081
-0.097738 0.171471 -0.253124
0.129986 -0.121984 0.052465
0.634381 -0.242352 -0.049112
-0.750938 -0.183064 0.27806
0.379229 -0.321739 -0.123968
0.168803 -0.331189 -0.097417
0.302978 0.092466 -0.305711
-0.557103 -0.03394 0.185904
-0.222814 -0.443584 0.191899
0.009508 0.576237 0.217764
-0.198441 -0.026634 0.032595
0.157017 0.061397 -0.179125
0.434728 -0.021781 -0.202421
0.062608 -0.244963 -0.057677
0.294704 0.033267 -0.232569
-0.736106 -0.44573 0.271208
0.536865 -0.477561 0.057604
0.076682 -0.130643 0.073192
-0.401382 -0.360677 0.271208
-0.277643 0.294771 -0.208416
-0.536491 0.148422 0.088608
-0.181285 -0.194624 0.149761
0.026049 0.027883 -0.1017
-0.773261 0.042293 0.264357
-0.481685 0.146963 0.078331
0.617024 0.410742 0.237635
0.174126 -0.012518 -0.085255
0.02292 0.578499 0.210913
0.560704 -0.110173 -0.155829
-0.698577 -0.536927 0.198922
-0.533232 0.283077 -0.105125
0.305026 0.191743 -0.37971
-0.347659 -0.49233 0.167918
0.16104 0.054071 -0.176555
0.297594 -0.220329 -0.077547
0.50222 -0.19859 -0.134417
0.560021 -0.419627 0.105053
-0.288624 0.300262 -0.208416
0.726787 -0.417794 0.099057
-0.263954 0.312154 -0.210985
-0.135489 0.415783 0.179908
0.171633 -0.284047 -0.089538
-0.519723 0.150079 0.08347
0.663758 -0.463136 0.08347
0.12988 0.210638 -0.351276
-0.122584 -0.385396 0.217764
0.106511 0.204406 -0.351276
0.670513 0.532002 0.068053
-0.213927 0.068702 -0.077547
0.383702 0.145835 -0.355558
0.026878 -0.274972 -0.065556
-0.552606 0.159645 0.068053
0.546757 -0.032903 -0.176555
0.136383 -0.328104 -0.09382
-0.016567 0.171783 -0.282415
-0.063862 0.181918 -0.282415
0.39266 -0.073163 -0.065556
0.375849 0.166824 -0.383136
0.297963 0.07916 -0.293721
0.274617 0.087498 -0.293721
-0.230742 0.392599 -0.148977
0.104204 0.132946 -0.263573
0.429819 0.422402 0.29262
0.550538 -0.159585 -0.176555
0.564024 -0.415429 0.11533
-0.4093 -0.403885 0.237635
-0.15716 -0.485602 0.155756
-0.477193 0.150219 0.068053
0.174031 -0.239235 -0.065556
0.360975 0.047901 -0.269568
-0.540968 0.158067 0.073192
-0.138812 0.399086 0.167918
0.169577 -0.008474 -0.089538
-0.157506 0.463995 -0.013826
-0.128624 0.467852 0.167918
0.221124 0.052664 -0.235138
-0.563157 -0.096644 0.149761
-0.133298 0.001843 -0.013826
-0.034266 -0.020164 -0.013826
-0.350371 0.366597 -0.155829
0.551053 -0.073498 -0.155829
0.562105 0.48856 0.155756
0.348891 0.499636 0.210913
-0.430059 0.138436 0.068053
-0.143387 0.39272 0.132631
-0.42372 0.358876 -0.155829
0.037608 0.06934 -0.155829
-0.26544 0.382039 -0.155829
-0.362174 0.120682 -0.013826
-0.071678 -0.017964 -0.013826
-0.353371 0.111879 -0.013826
-0.304955 0.160295 -0.013826
-0.040868 -0.031168 -0.013826
-0.435505 0.18194 0.008614
0.474102 -0.1302 -0.013826
-0.417533 0.339577 -0.176555
-0.273161 0.382039 -0.155829
-0.531814 0.353085 -0.155829
0.298043 -0.088387 -0.013826
0.255264 0.504532 0.237635
0.358812 -0.219582 -0.081829
-0.566692 -0.061904 0.167918
0.721956 -0.410547 0.099057
-0.437998 -0.469511 0.191899
-0.164583 -0.075718 -0.000122
-0.10278 0.238049 -0.308281
0.049238 0.06708 -0.159255
0.026361 0.142578 -0.258263
0.558013 -0.145569 -0.198995
0.068943 -0.269629 -0.061103
-0.548067 0.1557 0.073192
0.614399 -0.270603 0.210913
-0.152828 0.484808 0.008614
-0.32308 -0.488767 0.179908
-0.011263 -0.280182 -0.061103
0.682499 0.527237 0.073192
0.261862 -0.334907 -0.112834
0.602028 0.459469 0.179908
0.51228 -0.431977 0.121326
-0.284031 0.306678 -0.210985
0.314751 0.157274 -0.352989
0.355591 0.499624 0.217764
-0.136674 -0.52047 0.121326
0.696642 -0.377896 0.121326
0.67206 0.482458 0.121326
-0.156512 -0.008832 0.004332
0.390637 0.461061 0.24363
-0.22286 -0.494878 0.167918
-0.735943 -0.526061 0.204917
0.681893 -0.375438 0.121326
0.708932 -0.37298 0.121326
-0.532436 0.128483 0.121326
-0.279392 -0.417816 0.210913
-0.367512 0.450272 -0.09382
-0.157627 0.402091 0.047327
0.27569 -0.149403 0.047327
0.034701 -0.091473 0.047327
-0.152992 0.432215 0.047327
-0.123217 0.116972 -0.173129
0.117556 0.565355 0.210913
0.134341 -0.10306 0.047327
0.240933 -0.158673 0.047327
0.678885 0.483194 0.047327
0.47159 0.088467 -0.31085
0.410167 0.111279 -0.321128
0.580246 0.524689 0.08347
-0.266403 0.07173 -0.089538
-0.345111 -0.502518 0.167918
-0.33792 0.440652 -0.1017
-0.545872 0.041247 0.24363
0.27145 0.533917 0.185904
-0.11543 0.50722 0.22376
-0.132919 0.44148 0.179908
-0.29546 0.096622 -0.069839
-0.703948 -0.466181 0.257333
0.398958 0.050166 -0.282415
0.286047 -0.083745 -0.018964
-0.554004 0.057023 0.237635
-0.512523 -0.137229 0.461516
-0.334233 0.084075 -0.049112
-0.636768 -0.162078 0.461516
-0.68336 -0.171397 0.461516
-0.670936 -0.171397 0.461516
-0.096478 -0.013501 -0.009543
-0.339269 -0.496961 0.173913
0.760167 -0.333927 0.143765
0.303981 0.009525 -0.202421
0.057898 -0.109673 0.042188
-0.503204 -0.140336 0.461516
0.080305 0.126686 -0.249698
-0.278374 0.178178 -0.036265
-0.519935 0.464885 -0.061103
-0.267077 0.400782 -0.138699
0.040566 0.096522 -0.198995
0.446708 -0.108834 -0.036265
0.401698 -0.358244 -0.134417
-0.430563 0.151033 0.057604
-0.54528 0.061076 0.217764
0.16341 0.040625 -0.152403
0.516017 -0.21633 -0.134417
0.601721 -0.453591 0.08347
-0.152547 0.20802 -0.285841
-0.585206 -0.38537 0.271208
0.42998 -0.131388 -0.000122
0.64285 0.476873 0.138626
0.184652 -0.099041 0.018035
-0.149253 0.476053 0.052465
-0.395684 -0.434453 0.204917
-0.154891 -0.525217 0.127321
-0.315778 -0.052641 -0.040547
0.15337 -0.225305 -0.061103
0.307348 -0.319879 -0.11626
0.248124 0.146264 -0.315989
0.727956 -0.378728 0.11533
-0.079305 -0.07918 -0.023247
0.011017 -0.334606 -0.085255
-0.007623 0.206229 -0.328151
-0.147288 0.026687 -0.04483
-0.141034 0.508305 0.073192
-0.118241 0.494717 0.204917
0.478428 0.070047 -0.285841
0.43468 0.043126 -0.285841
-0.182672 -0.503988 0.143765
0.131958 0.049767 -0.159255
-0.459824 0.134047 0.088608
-0.707336 0.554177 0.155756
-0.353026 -0.398526 0.237635
0.52403 -0.046475 -0.155829
0.190608 0.006916 -0.119686
0.59586 0.497187 0.127321
0.007147 0.586386 0.210913
0.145754 0.557576 0.198922
-0.134603 0.436826 0.173913
0.525767 -0.355158 0.138626
0.507083 -0.096436 -0.159255
0.258661 0.526125 0.204917
-0.22641 0.289107 -0.214411
-0.67459 -0.468198 0.237635
-0.138812 0.41182 0.167918
-0.736294 -0.570008 0.22376
-0.194727 0.195266 -0.255693
0.16276 -0.075718 -0.000122
0.39833 0.472595 0.230783
0.036789 0.04061 -0.123968
-0.003077 0.583708 0.204917
-0.153907 0.406244 0.052465
0.752664 -0.333927 0.143765
0.588121 -0.390862 0.132631
0.522164 -0.380536 0.149761
0.114051 -0.327233 -0.089538
-0.738648 -0.103509 0.285768
-0.274228 0.205938 -0.077547
0.014066 -0.278072 -0.061103
-0.254916 -0.011583 -0.027529
-0.228265 0.224847 -0.285841
0.484515 -0.154176 -0.189402
-0.077162 -0.105552 0.013753
-0.514953 0.14934 0.078331
0.267184 0.533819 0.191899
-0.434491 -0.441475 0.210913
0.004321 -0.210259 -0.036265
-0.115088 0.431367 0.285768
0.045345 0.136572 -0.253124
-0.127867 0.412442 0.217764
0.276968 0.492997 0.257333
-0.336179 0.179167 -0.018964
-0.169668 0.374161 -0.018964
0.649135 -0.235392 0.062743
-0.409102 0.176698 0.004332
0.151349 0.552299 0.204917
0.507783 0.397343 0.29262
0.640411 -0.227183 -0.074121
0.469614 -0.004278 -0.166278
-0.145568 0.006083 -0.018964
-0.106131 -0.074982 -0.018964
-0.366853 0.190122 -0.018964
0.198409 -0.066218 -0.018964
-0.331798 0.113439 -0.018964
0.169927 -0.059645 -0.018964
-0.206671 -0.033433 0.008614
-0.308024 0.09034 -0.069839
0.532191 -0.456531 0.057604
-0.445144 0.190528 -0.005261
0.468051 0.479013 0.204917
-0.406289 0.198885 -0.018964
-0.160905 0.448652 -0.018964
0.001224 -0.107846 -0.018964
0.222509 -0.0706 -0.018964
0.15043 -0.331189 -0.097417
0.287507 0.093741 -0.308281
-0.050458 -0.317997 -0.069839
-0.42874 0.156468 0.047327
0.000246 -0.322216 -0.077547
-0.152077 0.467181 0.042188
-0.222508 -0.070619 0.047327
0.064463 0.190681 -0.332433
-0.262101 -0.487664 0.161751
0.39358 0.486491 0.210913
0.210466 0.096599 -0.288411
-0.616997 -0.419989 0.257333
0.117064 -0.271928 -0.069839
-0.117919 0.43823 0.264357
0.471499 0.487215 0.198922
-0.553327 0.256881 -0.065556
0.249917 0.520758 0.217764
0.719339 -0.354817 0.127321
-0.341572 0.23839 -0.097417
-0.408849 0.138436 0.068053
0.127121 -0.095829 0.042188
0.540106 -0.420962 0.078331
-0.149279 -0.439182 0.185904
0.247106 -0.153514 0.042188
0.090233 -0.230914 -0.053395
-0.040996 -0.199469 -0.036265
0.742494 -0.33772 0.138626
0.549149 -0.317808 0.161751
0.688808 -0.390961 0.11533
0.527323 -0.403195 0.11533
-0.126049 0.461644 0.185904
-0.279265 -0.516201 0.149761
0.621548 -0.228026 -0.057677
-0.238947 -0.063951 0.057604
0.317454 -0.067547 -0.04483
0.745082 -0.373834 0.11533
0.490622 -0.425216 0.11533
0.157879 0.580377 0.185904
-0.12437 -0.445795 0.173913
0.617633 -0.370487 0.149761
-0.193004 -0.08095 0.018035
-0.014112 -0.039926 -0.018964
0.073924 -0.101867 0.027456
-0.130195 -0.5104 0.127321
0.465695 -0.033002 -0.142125
-0.126904 0.496802 0.138626
-0.172668 -0.503988 0.143765
-0.528245 0.23879 -0.053395
0.218177 -0.035323 -0.065556
0.240985 0.032676 -0.214411
0.688931 -0.314047 0.167918
0.321088 -0.00838 -0.179125
0.453921 0.553479 0.11533
-0.528104 0.319925 -0.145551
-0.112428 -0.496058 0.088608
-0.471701 -0.485066 0.191899
-0.063813 -0.093253 -0.005261
0.24764 0.160222 -0.340141
0.482902 -0.122876 -0.049112
0.113452 0.536412 0.24363
-0.208821 0.073786 -0.089538
0.45087 0.449522 0.257333
-0.192735 0.395968 -0.145551
-0.36294 -0.497425 0.167918
0.369268 -0.180007 0.032595
-0.717621 -0.523443 0.204917
0.08321 -0.104794 0.037905
0.212479 -0.413432 -0.134417
-0.116406 0.552211 0.210913
-0.321394 0.226984 -0.085255
-0.140157 0.401337 0.143765
-0.332121 0.316132 -0.20499
-0.112776 0.528446 0.22376
0.446306 0.45533 0.250482
0.438734 0.150354 -0.383136
-0.567444 -0.145791 0.08347
0.078665 -0.111981 0.042188
-0.359586 0.249744 -0.108551
-0.184394 0.027343 -0.031811
0.1154 -0.093298 0.037905
0.600799 -0.3968 0.127321
0.262062 -0.009941 -0.162852
-0.335123 -0.464994 0.185904
0.734156 -0.359756 0.127321
0.73168 0.437669 0.161751
0.452533 0.450297 0.24363
-0.113013 -0.518676 0.110192
-0.253575 0.377266 -0.162852
-0.034488 0.19346 -0.303142
-0.119035 0.504893 0.210913
-0.109174 0.544727 0.237635
-0.104453 0.482768 0.314203
-0.09992 -0.232914 0.204917
0.515471 -0.465777 0.037905
-0.263584 0.065939 -0.085255
-0.148341 0.18194 -0.253124
0.414528 0.136377 -0.348706
-0.379979 -0.434453 0.204917
-0.504775 0.354381 -0.152403
0.422391 0.528935 0.161751
0.376608 -0.218249 -0.077547
-0.106382 -0.513298 0.11533
0.716532 -0.428975 0.088608
0.38961 0.09505 -0.332433
-0.41589 0.390162 -0.130991
0.233203 0.484056 0.27806
-0.110999 0.533928 0.230783
-0.706757 0.141309 0.451924
0.46715 -0.499813 0.073192
-0.62956 -0.167477 0.451924
-0.346066 0.315213 -0.202421
-0.509133 -0.14895 0.451924
-0.719108 0.144397 0.451924
-0.62956 -0.155126 0.451924
-0.620296 -0.16439 0.451924
-0.675878 -0.176741 0.451924
-0.515309 -0.155126 0.451924
-0.506045 -0.133511 0.451924
-0.499869 -0.152039 0.451924
-0.251059 0.385369 -0.152403
-0.108081 0.022204 -0.049112
-0.499869 -0.136599 0.451924
-0.169037 0.365194 -0.000122
0.195034 0.00102 -0.11626
-0.568181 -0.069009 0.149761
-0.01164 -0.166492 -0.023247
0.552274 -0.365148 0.110192
-0.521652 -0.416243 0.24363
-0.456298 0.193729 -0.000122
0.323988 0.561571 0.138626
-0.251746 -0.015879 -0.023247
0.344153 -0.092277 -0.023247
0.040747 -0.164308 -0.023247
-0.024736 -0.190502 -0.023247
-0.370226 -0.45093 0.198922
0.309229 -0.085729 -0.023247
-0.502898 0.074469 0.185904
-0.164434 0.012496 -0.023247
0.632694 0.512154 0.110192
