ply
format ascii 1.0
element vertex 1847
property float x
property float y
property float z
end_header
-8.62322 -13.7567 -2.18268
8.50902 3.72355 -2.09285
-8.86114 9.64378 -1.66569
-0.456674 -13.3018 -2.58061
-24.6603 6.40128 -1.3597
22.5029 -7.44892 -1.7932
-0.858297 6.1466 -2.1533
-7.87359 -30.2973 -2.62622
-33.0136 -3.33287 -0.86316
-0.590069 18.553 -1.88665
-20.8263 4.31011 -1.48718
-9.99513 11.4214 -1.61366
-5.42769 -3.8055 -2.04202
21.4964 -4.21394 -2.0378
6.82892 2.44255 -1.80619
-20.9393 28.0282 -1.15565
2.94601 -8.7592 -2.49826
1.42647 19.2308 -1.774
-38.3597 -2.44913 -1.26251
9.46679 -47.1972 -2.41502
7.36797 -44.3268 -1.19636
-16.2445 46.9227 -0.575533
-14.5875 -21.3258 -2.13958
12.5133 -2.31876 -2.55473
-14.9086 6.98829 -1.48156
-28.8841 -34.7666 -2.02724
38.1682 -20.1058 -2.95087
7.88764 5.19514 -1.4365
18.0673 21.222 -1.99916
9.13903 -1.51207 -1.41107
40.5104 -12.7105 -0.385467
21.8363 -23.7171 -2.3385
-14.8166 -9.79866 -1.85288
-18.397 25.752 -1.22232
-6.01638 3.23388 -1.85993
23.0071 31.1352 0.817875
5.51861 -24.7511 -0.136936
27.2606 4.58921 0.149904
26.0922 3.89939 0.768652
24.1761 -14.0263 -2.31774
-9.55416 36.2689 -1.48704
4.15373 11.5857 -0.981493
-20.1894 44.6906 0.278754
-3.14662 26.2181 -1.73501
-5.18264 1.63577 -2.00562
11.1009 -7.94177 -2.48326
21.1064 -24.8611 -2.73722
-6.01859 -0.904171 -1.95469
4.24392 -12.9242 -2.29954
20.9466 -16.4669 -2.84752
-1.15589 -14.757 -2.62449
-21.9778 -32.1996 -2.16174
-5.15812 12.3218 -1.84349
9.19606 1.67223 -1.03336
-10.4683 -1.56313 -1.83215
-1.98882 34.5286 -1.53755
-23.6605 -17.604 -1.80403
-5.38187 36.9958 -1.47925
2.07118 -5.3604 -2.4136
-2.4921 12.9443 -1.99107
21.1697 21.1066 -1.98761
4.30615 10.5973 0.0429393
6.22445 -1.47205 -1.81825
-9.07591 26.1657 -1.33417
18.8173 33.0669 1.23837
9.75844 -47.3922 -3.05586
24.7992 0.455242 0.736267
-14.8622 5.60785 -1.61448
10.1608 -29.0796 0.330795
-2.38349 16.7364 -1.90429
-3.4635 -21.9393 -2.63611
4.53441 4.19519 -0.427627
25.0551 0.675427 -0.146862
37.4165 -23.9213 -1.19246
21.4741 -26.9099 -2.1213
25.3966 -39.3304 -2.95423
-44.0382 16.4842 -1.0106
4.15557 12.211 -1.43887
24.5055 27.5394 0.125462
6.51893 -11.7217 -0.126408
-15.6318 18.9284 -1.30256
-34.1491 -2.29814 -1.10152
-14.7387 -16.0831 -2.05054
-28.229 -6.71966 -1.24548
47.3647 6.40301 -3.0298
-19.0146 30.0495 -1.17822
5.90979 -6.20134 -2.45859
21.7225 -2.78272 -1.89847
-5.24491 -5.91591 -2.13365
-13.7464 -12.7446 -1.96682
21.5383 -14.4746 -1.55152
3.84483 6.49617 -0.256574
8.00886 -1.55213 -1.96294
2.20608 23.049 -0.669766
4.07444 2.85932 -0.430465
-11.164 -7.64349 -1.95681
-2.46053 46.4822 -1.27604
3.3513 -14.7266 -2.01438
-6.77699 19.4052 -1.52201
35.4418 -8.98837 -3.09281
21.3833 -2.48908 -0.474476
25.6543 -9.27715 -1.94874
-21.1849 1.80269 -1.48793
-3.15538 15.3759 -1.93121
10.0279 2.33034 -1.41135
26.3185 4.20907 -0.459361
2.52539 -22.6942 -2.14463
8.75772 33.622 -0.480752
-33.4491 4.11968 0.114453
19.6431 -5.58547 -2.50306
-4.10148 -11.3522 -2.34144
4.93656 6.56014 -0.637425
-32.7226 -8.16148 0.530557
10.0394 -38.7211 -0.778142
26.4795 -18.4578 -1.56023
23.0332 -26.9598 -0.665791
-21.4228 -13.6901 0.62008
23.7027 -2.61412 -1.80622
16.2465 -3.88651 -2.64213
-12.765 -6.0127 -1.86838
16.8146 35.0187 -1.50843
16.361 5.29455 -2.40127
7.94571 -40.0881 -0.792015
-14.0117 14.8335 -1.41119
-4.70115 -23.9864 -2.6088
-12.4308 13.7696 -1.46689
1.37789 22.5403 -1.58362
-39.4661 22.5507 -0.983725
36.643 -27.4811 0.953799
-20.2162 -4.72593 -1.68541
20.0902 -3.83408 -2.2708
-37.1045 -22.0172 -0.643466
13.255 0.285017 -2.52636
7.9892 2.46901 -1.71349
-27.5044 -19.8126 0.757906
-7.50139 -12.9917 -2.19067
-21.5748 -14.3362 -1.37989
37.8211 -9.74555 -3.08633
-18.4762 -3.87585 -1.7461
36.832 -15.0807 -1.28569
-12.3693 5.13534 -1.65209
9.93032 4.42318 -1.44343
-25.8683 -6.15089 -1.61172
-1.80262 -5.83036 -2.42965
25.1324 5.3895 0.753623
-32.8072 -7.43911 -0.646678
2.68571 47.2153 -0.796013
-13.8546 -14.1075 -1.83718
-11.2799 45.6014 1.38986
-10.1252 15.8577 -1.37666
-3.50679 4.69393 -2.19599
-6.71943 -3.26037 -1.99821
1.13496 16.1751 -1.8595
20.1053 -22.621 -2.89394
-31.2619 21.6544 -1.04484
18.6589 -18.9123 -3.01527
11.0629 -9.18686 -2.2701
5.62342 5.2509 -2.00125
25.1706 -14.1834 -2.23028
12.7536 -8.60581 -1.27688
-7.76783 5.64901 -1.75794
36.7464 -13.5321 0.600996
2.79003 -42.5634 -3.38478
-5.5383 -40.0418 -2.98384
-11.4013 46.4632 0.878932
-2.85305 38.0675 -1.51368
-4.02086 14.5658 -1.94023
26.1241 -19.7197 -1.5849
26.0657 -12.5491 0.499645
9.66676 3.42402 -2.31831
10.2246 -1.50336 -1.94542
-3.70042 15.892 -1.91819
-5.14702 -9.33237 -2.17048
-8.05947 -24.4844 -2.44785
-15.819 -1.48749 -1.73343
2.81846 4.54769 -1.68355
24.0959 7.31771 -1.918
-26.8113 0.0141868 -1.44111
36.751 -14.4391 -2.46359
-16.6535 15.9375 -1.36934
20.3372 -8.0684 -2.0366
-14.1274 2.20248 -1.69575
2.59128 5.58377 -1.23622
4.55324 0.141361 -1.64318
-31.1524 16.6967 -1.16247
-12.3226 6.31363 -1.62237
38.7837 -12.8548 -2.0298
-16.396 19.7601 -1.22253
9.05189 -18.0796 -1.74523
11.0442 4.00202 -2.1083
14.0025 -7.44348 -2.67596
6.01586 7.80884 0.0654615
-11.1591 6.62826 -1.66183
1.39086 17.7122 -1.83391
-8.8494 -6.38766 -1.98701
41.1978 -12.6632 -2.15245
-26.3794 -11.2324 -1.55059
-12.0104 45.0105 1.10625
26.7648 5.8141 0.150076
23.7597 4.6827 -2.27342
26.7558 1.34522 -0.462272
5.98407 6.5095 0.291905
-27.3042 -14.7802 0.514969
5.01929 -22.4791 -2.44547
-21.5271 44.3008 0.279133
6.36725 -4.27763 -2.40439
5.26256 -17.1145 0.183311
4.36447 22.1708 -1.45485
-32.2233 -16.605 -1.16692
2.67751 14.3376 -0.684974
-8.53453 5.93057 -1.74595
-4.70668 2.88248 -2.05076
-10.9925 -9.00267 -1.98806
-18.9025 4.12236 -1.55115
-10.9275 -10.783 -2.05137
2.17949 -47.2801 -3.52248
-22.2203 3.6935 -1.45867
-22.1415 37.5708 -1.23957
-25.4637 35.3462 -1.2378
4.19963 9.76132 -0.88829
23.8002 14.4079 0.960737
-3.67868 11.8849 -1.99801
11.9671 -4.74186 -2.5907
28.3771 4.12632 -0.703503
24.9966 -12.408 -2.65177
20.4133 0.582105 -1.75589
9.06483 3.87322 -1.10294
-11.8482 11.6463 -1.48743
5.73744 -14.958 0.185925
2.17314 8.6481 -2.00818
2.15054 23.7944 -1.25157
-38.128 -1.18931 0.797136
-34.8027 6.99564 0.527643
-1.56222 19.5271 -1.8053
-33.8652 6.88283 -0.915488
19.288 4.80556 -1.36485
7.80682 -20.188 0.0523568
-19.0816 17.8595 -1.24919
5.98391 28.9088 0.674898
-17.705 3.05305 -1.64433
18.5689 36.2544 0.602106
-13.7662 46.2079 -0.815769
20.3253 -17.5553 -2.5457
-32.6916 -35.5831 -1.91376
-28.8211 -21.5079 -1.77404
-4.85008 16.0502 -1.79313
8.90458 -43.6616 -2.22137
-0.817604 10.588 -2.00152
-3.34354 34.6381 -1.5494
7.45057 -11.1043 -2.34877
23.8582 11.7085 -0.460251
19.9133 6.56858 -2.33073
-19.22 5.49917 -1.48984
15.37 -11.5349 -2.82373
3.36615 5.78151 0.110552
3.53624 13.6306 -0.830646
18.5272 21.3934 -1.043
-29.5853 -4.05037 -1.12359
5.97511 -27.5508 0.507059
-12.1761 4.35189 -1.66479
-29.577 -9.31962 -1.1712
-6.03491 17.8513 -1.70645
4.75671 -27.8532 0.507661
-24.3116 43.196 -1.1017
2.48861 -10.2291 -2.50339
26.3459 3.6907 0.0051417
1.47774 -32.3136 -3.11136
-7.35903 13.0286 -1.66528
-13.5268 45.3859 -1.04677
2.10225 19.6014 -1.35692
-13.2124 22.9025 -1.26555
-26.0823 28.2607 -1.06201
0.917558 40.7927 1.31302
-5.73225 -23.8734 -2.32255
12.6066 -5.27785 -2.61691
-17.2976 40.0871 -0.480251
-23.6564 -28.5213 -2.04734
24.6532 -27.6602 -0.956296
-5.44686 -21.561 -2.50591
-11.4493 -6.67909 -1.91133
-0.256048 48.582 -1.07243
-7.38186 29.7892 -1.68167
-27.9493 -11.7066 -0.0267818
-29.8179 12.5359 -1.24839
3.04144 24.3063 -1.45864
8.15321 6.00297 0.238189
-8.95671 12.2468 -1.61025
8.51094 7.0407 -2.19438
-32.1598 9.74525 -1.29836
-17.3652 -4.29066 -1.64274
-8.17925 -7.58051 -2.03614
-14.9289 29.6924 -1.29401
-32.5386 -10.736 0.538802
5.33502 -8.8132 -2.54344
-32.6246 -8.91836 -1.29648
-14.9315 -5.62741 -1.84514
37.0129 -17.526 -1.3284
8.39357 -4.76308 -2.47108
23.6049 -10.6868 -2.76198
-44.6791 5.20012 -1.252
5.64001 20.2782 -0.590278
-11.3969 5.43672 -1.70144
-13.3826 16.6039 -1.36321
3.78539 46.8983 0.579876
19.4919 4.10418 -1.70687
-13.4699 4.10393 -1.66106
-15.6507 -13.2915 -1.91957
-21.0603 26.6218 -1.11455
-46.3205 -1.12591 1.4441
-3.40706 16.6043 -1.91149
7.87777 -20.3886 -2.45418
-8.10648 -33.8138 -2.72865
4.38243 -24.6007 0.62876
2.06106 -15.474 -2.65969
11.2244 -28.4212 -1.86013
2.81119 -32.2829 -3.11685
8.16486 -13.4665 -2.29178
-1.40275 8.31581 -2.0813
36.7156 -13.04 -0.759752
6.65481 -18.4752 0.286952
6.07162 -1.38929 0.343066
4.20135 -28.7767 0.852971
-1.13149 -34.0312 -3.06716
5.60511 19.0937 -1.25703
37.3916 -22.8872 -0.113758
-5.45746 2.25057 -1.98202
-20.7397 -12.8107 0.733964
11.4883 -13.0324 -2.76738
5.95662 -25.1475 0.172215
-17.251 -13.2479 -1.89914
8.07979 -0.307739 0.190869
-34.4184 -3.08542 -0.0710688
11.3822 -4.03934 -2.54641
8.39736 -1.42136 -1.43789
27.2234 10.2478 -1.07487
6.02636 -16.6574 -2.3886
24.138 4.19728 -2.00627
-0.54127 -11.9501 -2.56352
7.0616 -5.42064 -2.49567
40.4493 -12.6405 0.632412
-7.57787 -27.9624 -2.58499
-14.496 -4.37364 -1.82311
-33.9541 4.89078 0.730025
-13.9989 9.90691 -1.54915
-31.4989 20.3317 -1.02637
6.59937 2.7235 0.275909
-4.49835 -7.81699 -2.24395
-4.53395 -8.94087 -2.24209
-8.82439 -32.6673 -2.65076
-7.85478 -5.34746 -2.02031
5.60934 -16.9058 -0.354043
-30.3064 4.03349 -1.32905
-4.63689 20.3005 -1.78072
-12.1789 38.9827 -1.38448
-22.8594 -11.7374 -1.69212
-12.9265 2.58986 -1.70855
21.6888 -7.16802 -2.13373
2.10061 -8.29079 -2.47147
-13.5486 1.50682 -1.69848
-16.7923 12.9066 -1.47618
-29.2208 -31.2466 -1.91006
-12.9508 -21.286 -2.20124
-32.2904 -14.8553 -0.49775
2.65883 25.4842 0.0092006
3.37167 -15.0539 -2.62635
10.1123 -2.9116 -2.45863
-13.7732 20.5774 -1.31478
24.2431 1.31462 -2.12594
2.87559 10.8014 -0.944607
0.709867 39.898 1.28869
-32.8857 -6.2585 -0.0587991
8.905 -15.5414 -2.18517
44.9638 -11.3158 -2.33141
-3.22668 -25.3248 -2.73201
-22.9945 43.2381 -1.09163
22.5331 -28.3158 -0.289032
18.0089 0.319288 -2.52767
5.88143 -17.7385 -0.0507649
39.9487 -12.7584 -2.08878
-0.385559 -43.1701 -3.42884
-9.79048 -5.37451 -1.95679
-0.279888 8.53508 -2.09312
-5.18117 14.6025 -1.81083
26.5257 9.97397 0.146923
10.7492 4.12117 -0.971188
1.60371 -24.2953 -2.90418
-28.8718 -12.335 0.708814
-21.2349 -7.26301 -1.70369
0.768191 46.5762 -1.01834
-25.2029 -32.1026 -2.02971
-1.52414 -16.8195 -2.70253
17.275 0.66475 -2.51135
-7.92609 24.3655 -1.36576
-1.54052 -8.35265 -2.47038
2.93556 16.4043 -1.30411
-11.0985 -5.3975 -1.9487
-12.9626 0.658601 -1.77602
-16.656 42.3182 -0.997358
-9.09881 5.36461 -1.70929
-18.5417 7.5428 -1.4903
-9.88451 -0.442289 -1.86957
-6.45199 -6.25068 -2.07552
-9.35174 -9.04273 -2.06255
-5.61789 17.1541 -1.62323
-1.09515 -7.81587 -2.45748
-9.05316 3.90168 -1.73258
36.7657 -13.9832 -0.34116
16.8024 37.5182 -1.34719
2.78325 14.4865 0.0927147
24.9066 2.2005 0.289101
17.9062 -20.0237 -3.05143
6.6182 -42.129 -2.37283
-11.2792 -23.3804 -2.30014
-23.8838 3.58818 -1.44619
-32.6906 -2.4913 -1.43673
-23.8233 -4.78887 -1.59105
-3.18586 18.1351 -1.87473
-27.4488 -25.4 -1.84736
4.87784 4.62143 0.312641
5.31829 -6.75526 -2.47182
-3.80941 -3.80817 -2.24153
-2.90039 -5.83068 -2.4141
22.423 28.0934 -0.939031
22.7389 28.3508 -0.312265
-3.40006 -17.7748 -2.56941
-28.4933 -17.5377 -0.85955
11.5172 -1.36834 -2.0008
-3.93286 7.93965 -1.95809
-9.55837 -31.5454 -2.57723
-7.37039 -3.12328 -1.96269
23.9093 -1.64731 -1.68856
7.24368 -20.4361 -2.29066
5.81008 -20.9916 0.693051
2.511 18.0555 -1.33682
-3.03609 -11.5703 -2.44653
-7.40571 -9.81518 -2.08131
7.12586 -20.2785 -0.974226
3.23332 2.67354 0.295279
23.2269 -3.27698 -1.91314
2.90916 6.86962 -1.59438
-6.50115 15.1372 -1.46116
42.6949 -11.6395 -0.120649
16.9619 40.1375 0.344156
6.91161 5.40698 -1.88572
-3.84834 29.7772 -1.63781
20.8653 -14.4067 -2.8668
-45.8704 -0.461142 1.43089
14.5026 -2.84377 -2.58392
37.2688 -22.2841 -2.16843
-16.9759 10.785 -1.49717
1.23181 -10.1011 -2.53049
-3.14996 -7.09311 -2.31714
-0.0764182 -10.1644 -2.52882
-4.01692 10.6542 -1.96536
6.12904 -2.74654 -2.33898
-9.745 -13.5146 -2.14097
-26.4412 17.1844 -1.21368
7.14034 -9.67873 -2.18787
19.0654 -3.63918 -2.61048
23.5921 -6.23992 -1.85192
19.3124 -8.39346 -2.72423
8.24893 -18.301 0.17581
-5.70956 -11.6793 -2.20823
-4.45902 -16.1425 -2.37109
28.2906 6.36014 0.301031
3.97285 22.6162 -0.525979
24.9129 26.3422 -0.310738
3.25936 -13.8507 -2.61227
-2.4576 29.8343 -1.63124
20.3127 -14.966 -1.92282
-31.2933 15.3579 -1.14286
25.496 1.83561 0.458641
-1.3295 -24.2568 -2.89817
14.5235 -6.19867 -2.66238
43.3811 -11.5561 -2.01159
-16.9232 -9.23678 -1.79016
-6.81128 42.6986 -1.22263
12.0149 -14.5151 -2.42708
-1.12154 29.9692 -1.63368
-13.4668 11.1077 -1.57886
6.64573 -15.0408 -0.798363
2.48452 6.26868 -2.00596
-11.9542 40.2903 -1.18447
19.6363 29.9768 -0.502298
27.3869 -0.0193534 0.477182
1.9764 47.5232 0.35674
-5.71931 -7.32265 -2.0673
-5.4322 -1.94368 -2.0319
-7.54784 -19.6049 -2.36102
-1.62134 5.0466 -2.15564
4.28484 -5.02997 -2.39886
18.0346 -9.83185 -2.77875
-10.6948 40.6294 -1.18354
-20.2312 -10.0467 -1.7162
-2.86815 4.89061 -2.16813
16.199 39.4379 -0.63654
-2.26619 20.0967 -1.84381
26.068 -26.1939 0.345941
7.36013 -3.72618 -2.39313
26.2448 -11.1053 0.155404
-7.95034 18.4743 -1.48526
-27.2977 -15.7575 -0.031897
-10.1792 48.0425 -0.833571
-33.8098 -3.05542 0.526328
0.0481477 -12.6087 -2.57302
27.5802 4.81524 0.96897
-0.537359 25.3914 -1.66027
1.85808 13.286 -1.90954
26.6218 -12.0477 -0.00770909
7.63665 -29.7163 -2.7457
-32.8636 -5.86346 0.524542
4.38058 -14.8328 -2.2563
-6.32037 1.2307 -1.90002
18.8377 31.3459 0.981188
-19.7903 39.6294 -0.732873
-6.54659 16.1085 -1.5564
26.1035 -19.4189 -1.0095
3.4477 3.02255 -0.380156
18.7402 -10.584 -2.78999
-3.58553 19.891 -1.84539
21.7797 -27.1154 -2.72421
6.10055 7.20958 0.355624
7.13424 -15.8057 -0.0321277
-9.54556 3.04039 -1.77
-28.6012 -37.4652 -2.12101
-29.0084 -14.369 0.900007
-0.455895 -5.96358 -2.42599
7.68083 -30.7048 -2.83822
-10.9987 15.5831 -1.40065
19.7271 -7.73337 -1.96519
10.2637 -5.32382 -2.54395
6.62846 -11.7076 -1.59775
-3.06607 -13.2021 -2.49324
-0.149362 17.7012 -1.8986
-33.5994 -1.08808 -1.07911
-1.26411 -12.5572 -2.57593
-17.3563 40.5006 0.0397919
-37.8479 -0.807349 -0.760816
2.17915 4.72261 -2.14856
-29.1538 -4.87989 -1.1096
9.74886 7.27809 -0.757316
-16.7297 46.5927 0.0187056
-28.7241 -12.3896 -0.794361
-3.92722 -13.455 -2.38799
-10.9614 13.8579 -1.48401
5.39278 -10.0546 -2.18819
-1.77901 -19.3379 -2.76831
-15.8218 0.7599 -1.72291
-2.4017 -7.90672 -2.4583
-10.7294 7.88469 -1.62946
2.29968 -7.2794 -2.4435
13.6455 -44.5409 -2.61504
-6.65559 -39.36 -2.94468
18.7169 -7.59773 -2.72788
-11.4606 -14.3355 -2.15227
-21.3467 6.08523 -1.43338
10.625 -17.4093 -1.89249
7.64856 -16.9643 -2.39879
3.86886 1.27441 -1.52938
-14.9004 -23.8689 -2.17652
20.8215 12.0242 -1.25843
3.73451 1.93396 -0.305227
36.8425 -14.8622 0.851732
-0.741516 -15.399 -2.62708
4.64119 10.9052 -0.937639
4.52891 3.24257 -1.29321
23.0551 -7.1687 -1.97415
6.59193 -28.6555 -0.51889
23.9423 12.2707 -0.808457
2.47706 3.67405 0.171865
25.8791 -25.4809 -0.492873
-0.152327 -16.7945 -2.68676
-5.38057 -14.4344 -2.25522
-15.1788 12.4576 -1.45407
2.54992 -21.4148 -1.87695
-4.62242 11.6433 -1.88804
-5.90641 -5.90808 -2.07579
-10.2797 -3.52449 -1.89352
-14.6481 13.7947 -1.38933
4.19033 -17.1716 -2.50294
22.91 0.911446 -2.14192
1.11995 48.1574 -0.164007
-37.0076 1.82119 0.305376
-15.8768 -9.18812 -1.69331
23.6586 -36.9404 -3.25191
17.7539 39.3103 -0.407901
-7.83925 -4.26624 -1.97008
11.2822 -0.617318 -0.291844
-1.0344 16.9778 -1.91603
22.2383 6.46446 -2.16444
11.4063 -38.7259 -2.9755
-11.7188 19.3557 -1.33677
18.4769 12.6977 -1.56807
23.177 -14.1227 -2.57431
-25.3623 -16.1216 0.309388
-22.0455 20.8451 -1.16024
9.87186 -41.4611 -2.90609
-38.669 -2.13272 0.108021
36.9695 -16.846 0.86694
-4.74339 21.34 -1.75938
26.6534 0.44536 0.00552388
-6.60616 -3.94086 -1.98839
5.70454 5.39083 -0.369893
-14.189 6.95744 -1.60229
-5.66857 -8.27466 -2.14231
-5.28844 -0.652999 -2.03307
-18.2561 2.28748 -1.57203
-25.5544 42.5667 -1.10383
-24.7682 -14.3049 -1.74542
1.03032 8.44562 -2.04891
3.63113 23.4773 -1.10162
-28.1871 19.4158 -1.12048
-17.3686 -7.99153 -1.77297
-4.14458 37.389 -1.48912
28.4083 4.54514 0.990109
7.45981 1.1764 -1.89077
26.9166 -23.5281 -2.61356
22.0725 -17.8017 -1.71214
-4.62675 13.5918 -1.83148
19.9369 21.5446 -1.08938
-46.1475 0.528101 -0.473458
-20.143 -13.9271 -1.7448
-14.7598 -12.0367 -1.76645
-14.1629 12.2413 -1.48514
-0.187461 -8.53836 -2.48439
-8.24493 36.5393 -1.48418
8.54634 -3.25603 -2.42227
25.2908 2.16898 -0.292094
7.16149 -0.628752 -1.46328
-18.0284 4.18163 -1.58033
17.9004 -7.10015 -2.72048
-14.0305 0.282658 -1.75824
25.9504 5.59161 0.929119
-8.49899 -9.42509 -2.01158
5.47337 -13.435 -2.30064
-33.2431 1.22826 -1.06731
-1.361 15.1507 -1.94592
-6.37134 23.8572 -1.60914
-8.88077 -12.5535 -2.16293
-13.0159 15.4177 -1.39187
-4.37589 17.0569 -1.89544
-11.06 -38.6148 -2.73163
19.2708 0.248759 -2.24326
-14.5681 -11.1134 -1.91764
12.5065 -12.2214 -2.78445
3.47709 14.9947 -0.285237
2.79204 -11.6302 -2.56018
-13.1087 -3.98478 -1.80409
-2.45648 -9.17331 -2.48733
-9.641 10.6839 -1.60277
-40.7501 18.4115 -0.952517
-28.3842 -21.377 0.140159
-21.8878 -15.0114 -0.458212
37.5345 -25.0165 0.664055
20.3535 -15.6787 -2.90783
5.32857 1.84524 0.360773
-6.51027 5.25971 -1.82117
7.66341 -15.6395 -2.34078
6.12735 3.88559 -1.8106
-27.2486 -11.7524 0.498257
42.3507 -11.5759 -1.17945
-7.85486 -0.747713 -1.91114
-1.69897 38.6918 -1.54429
-4.36492 -30.7622 -2.7842
1.57562 11.746 -2.03396
6.22788 6.44025 -1.84592
21.1144 -7.40308 -2.50448
21.2005 -9.65311 -2.75583
10.7392 1.91016 -1.50818
-8.38513 8.83828 -1.6772
22.6657 -1.64599 -1.8469
19.9481 -20.2401 -3.05094
3.10609 5.53589 -0.765936
-4.57242 -2.77077 -2.21872
-8.06063 1.15606 -1.86479
-0.502704 -7.58395 -2.43861
0.297947 10.6247 -2.00337
-15.4253 -10.9109 -1.75046
-26.5162 -21.2185 0.761072
5.69651 -15.7 -2.35138
-5.10828 -13.2355 -2.26305
0.46888 6.03616 -2.17865
9.36475 7.09389 -2.22192
-29.6452 6.44224 -1.31809
-32.4675 -12.237 -0.290744
0.144534 24.3932 -1.72676
2.86804 7.88009 -1.07413
-35.3102 3.89426 -0.705098
-8.71643 1.49316 -1.82293
40.2763 -11.6693 -0.610266
-0.782798 5.51478 -2.159
24.5665 -7.83018 -2.27014
3.13943 6.84316 -0.170186
27.37 8.07045 -1.52924
-5.18629 13.9267 -1.81852
-21.0552 -13.6461 -1.33066
-7.44363 4.79377 -1.78777
24.0021 -37.291 -2.78833
-26.6935 1.40141 -1.43641
5.39994 -8.01767 -2.49833
-23.3024 -3.61007 -1.538
-33.7966 14.887 -1.22272
6.89463 -18.1207 0.751343
-21.1394 -34.7451 -2.26215
19.0299 -6.76463 -2.72669
22.5028 20.9768 -1.88177
-28.4903 3.07207 -1.38487
19.2146 30.5976 -0.0715017
2.89106 14.7368 -1.33753
-36.9188 1.17934 0.108979
-10.5511 -15.1806 -2.16961
-29.5799 13.2039 -1.25084
-14.5975 1.42801 -1.74722
21.9284 1.58371 -2.45538
25.1318 4.32162 0.154325
-6.76015 -1.99962 -1.96801
-8.83921 -0.661387 -1.84788
8.6446 -19.686 0.431545
-9.64338 -6.64222 -1.97588
-1.14713 -18.5307 -2.7439
24.5937 13.5027 -0.685692
6.19603 -18.9223 -2.45161
-14.4942 -6.48382 -1.83663
-20.5173 -35.8632 -2.30049
-14.4501 19.5068 -1.28499
4.45938 2.2534 -1.66113
10.5813 0.813728 -2.40926
-5.00643 8.30957 -1.93342
-16.4509 -2.01535 -1.70848
-28.1135 -10.8054 -0.553666
26.7169 5.07662 0.000315753
18.308 -3.91237 -2.6368
4.33306 -13.7362 -2.28936
6.66278 10.9399 -0.0476609
-20.6367 22.4422 -1.16704
24.2971 27.1066 -0.707617
-20.9158 2.97992 -1.47664
-10.6362 -4.61652 -1.94767
6.25235 -44.0042 -2.21567
8.38045 6.50811 -1.88993
2.20392 16.1696 -1.36674
-14.1251 22.3074 -1.26249
0.730006 -35.4777 -3.20334
-13.2 6.17756 -1.64256
-9.55798 7.28441 -1.65907
18.8659 33.0371 0.576041
-3.28488 -15.5187 -2.53364
3.3884 3.98146 -0.591145
-25.6119 -22.2318 0.944038
-2.80889 18.7664 -1.71604
18.9323 -13.4663 -2.87867
17.55 -11.0187 -2.80593
-26.7063 -11.6326 -0.527646
19.6384 12.8091 -0.828574
-18.7458 40.1129 -0.203206
5.00812 9.54664 -0.0651806
-21.2855 -16.9621 -1.95942
-8.84499 3.31141 -1.74758
-6.31349 -19.2815 -2.39737
-11.6259 10.8212 -1.60151
-3.99168 9.08238 -1.97423
6.54023 -10.627 -2.18642
6.42495 -22.8337 0.175218
-18.2043 10.9978 -1.48508
-2.98125 -41.0076 -3.03736
6.95052 9.10686 -0.572974
23.6624 2.43028 -2.22955
26.1438 6.27172 0.294087
-3.90496 -9.3234 -2.35469
-4.68051 5.76516 -1.98684
21.1237 35.0023 0.854687
0.23937 6.61641 -2.10134
37.6159 -25.9257 1.4666
17.4804 6.13199 -2.36663
26.1204 -6.60357 -0.644776
9.95191 -24.4464 -2.3352
-37.5914 1.09311 -0.756149
13.8919 -6.36517 -2.6808
9.63455 -29.5201 -2.24616
24.4244 2.64075 0.156679
26.2254 1.43202 -2.00989
37.1355 -20.7038 -2.37236
-28.1274 -5.30282 -1.55025
9.9736 -22.224 -2.14068
37.3889 -24.3068 -2.49773
-12.2832 -22.3786 -2.25937
8.11582 -19.7119 -2.51719
9.25645 -30.3045 -0.784622
35.4122 -28.34 0.94692
5.56386 -24.6577 0.476579
5.00305 2.16581 -0.554233
-0.807295 9.88707 -2.05145
-18.5659 9.81227 -1.46429
-6.13009 21.4625 -1.673
25.632 1.11086 -2.11096
-32.3099 -13.6974 0.550304
21.6162 -8.31711 -1.88598
-16.6006 -6.81269 -1.65074
-24.0994 -37.9698 -2.25319
17.7347 1.6007 -2.4959
8.60812 23.0369 -0.577823
-16.3474 0.357183 -1.6788
-10.2086 17.3559 -1.38505
-13.6216 24.827 -1.22322
6.08352 2.09423 -0.146783
-0.0430755 40.2471 1.29797
4.98112 -4.2903 -2.37737
-24.8679 -33.3876 -2.07354
22.7011 -37.4075 -2.99153
-35.5979 3.83192 0.534331
-10.9855 -1.92143 -1.85822
-26.9642 -11.0963 0.300366
-5.36584 -15.2416 -2.28244
6.45344 2.94629 -1.76187
1.54271 38.6367 -1.02544
6.69211 4.68522 -1.87008
6.11958 -21.6132 -2.5291
19.5588 28.8008 0.758631
-2.5468 15.4907 -1.93054
-21.7501 39.4293 -0.210169
21.7975 21.9101 -1.89149
-11.8907 21.3433 -1.29409
2.05622 10.58 -1.92691
23.9982 27.6966 -0.518899
36.8673 -16.3266 -2.51979
4.2825 -3.76239 -2.35533
5.40335 17.6426 -1.25704
21.8073 -41.8576 -2.98043
4.41589 -18.3906 -2.44555
19.3516 7.28033 -1.91087
-15.9027 -2.96143 -1.77007
9.76407 -4.16632 -2.4859
12.3621 -29.4524 -0.409013
-27.7497 16.7541 -1.25337
16.1646 -17.8908 -2.99879
1.2934 14.9462 -1.88438
43.8236 -11.5271 -2.54365
12.9117 -9.11036 -2.50026
1.63045 -20.3138 -2.77616
-16.4923 44.4981 -1.0502
-20.9737 38.2606 -1.24027
27.0096 -40.4345 -0.45854
20.2376 -2.57225 -2.13003
-3.51664 -8.13344 -2.31625
-5.59691 5.36432 -1.876
-25.925 -19.6602 -1.02241
36.7768 -13.7412 1.28634
20.4698 -12.0741 -2.81658
-32.2735 -15.4939 -0.694022
10.6774 -0.885688 -0.00387186
-29.2794 -11.3114 -1.36113
-14.0255 -10.1115 -1.91416
45.9109 -9.1035 -3.2214
2.07997 5.43541 -2.13167
-22.161 -3.68914 -1.58555
-39.9869 20.6921 -0.961938
-37.6282 -1.23472 0.310679
4.65158 -20.4768 -2.48035
-27.1111 -10.4995 -0.898585
14.9562 -4.2553 -2.61721
-5.84683 11.3411 -1.75158
11.5139 -6.01753 -2.61846
-45.8848 0.570178 0.913286
36.6605 4.01541 -2.7084
-11.3892 1.60589 -1.78168
4.6565 0.941688 -1.57454
23.8682 15.769 0.811985
9.96888 1.59015 -1.38081
-28.5251 -6.13011 -1.25373
40.7102 -10.136 -2.86584
-6.82554 -4.98757 -1.99353
6.6245 -26.444 -2.59305
-8.5779 2.22652 -1.81995
-1.34216 9.49982 -2.05613
-11.2874 12.7878 -1.53292
4.55835 -5.59013 -2.41723
25.319 6.40782 0.623026
44.3939 -9.52473 -3.11872
38.5838 -12.8268 -2.7707
25.949 -1.03214 0.0110603
0.029876 -14.2107 -2.61726
3.42158 21.393 -1.51108
19.519 -1.56198 -2.39082
0.431131 26.8088 -1.61563
25.6342 9.52439 -0.479373
-34.4169 7.68174 0.74111
20.0879 12.1906 -2.20242
10.8637 -40.5627 -1.35537
-1.79193 16.2234 -1.9162
1.18393 6.01104 -2.11001
-8.03325 10.0581 -1.63005
-25.6895 -29.7903 -1.95045
-34.1694 4.03667 0.112628
3.14445 9.66875 -0.602361
2.40119 4.73297 -0.608336
-4.04596 18.5827 -1.72176
-8.17348 -8.67018 -2.01195
-0.694197 -38.596 -3.27775
5.5783 -24.9217 -2.41833
22.4858 27.9013 0.963217
3.72915 1.86735 -1.57514
9.09771 -23.1861 0.903986
23.3384 17.6236 -1.77869
20.8525 -10.8793 -2.78493
28.9995 -4.4992 -2.11141
21.3744 -28.9506 -0.678626
27.141 -10.9403 0.15383
4.74571 7.37554 -0.86183
43.4812 -11.4746 0.934272
12.1663 3.67285 -2.41193
-10.2269 12.076 -1.591
-11.7618 3.08753 -1.70425
-3.02803 -19.9175 -2.6185
-6.21939 42.8469 -1.23227
-23.3317 36.7897 -1.23803
-27.3762 -13.5614 -0.0266316
7.96854 -20.4701 -1.13138
-24.4162 36.0954 -1.23842
26.4793 -24.614 -0.494029
-27.8544 -7.74565 -1.07891
-24.6538 -0.438934 -1.48089
25.1306 -36.8946 -3.31239
6.6474 -19.5613 0.179488
29.7211 5.94611 -2.18937
25.0769 1.74723 0.89229
19.6863 5.71657 -1.76226
-32.5841 -9.95682 0.536028
26.3754 -22.8599 -1.09748
26.1013 -24.4125 -0.0483114
-3.086 27.8206 -1.70402
-13.488 47.3266 -0.248712
-18.6055 -25.1969 -2.09479
-12.7506 20.962 -1.30017
4.2013 -42.4371 -3.38356
25.6763 -12.4425 -0.189955
25.8682 19.353 -0.0423002
5.82584 -11.8731 -2.23085
-27.9572 -21.9683 0.331622
-32.6636 -0.42732 -1.43195
6.72286 -12.5229 0.010646
-0.00730136 5.53966 -2.18194
-18.9987 -6.71716 -1.74766
8.26355 -0.504819 -1.98889
-28.6085 -17.2705 -0.0456146
26.3566 5.12933 0.778191
-17.2999 -23.8114 -2.12775
-42.9567 8.81709 -1.21831
1.77999 18.351 -1.54012
-28.3716 -38.6668 -2.16088
-13.0515 9.90286 -1.46701
27.2677 -10.3583 0.309501
8.50014 4.75893 -1.27662
-35.4005 5.55741 -0.523501
-26.6272 -15.5018 1.05406
-24.9031 12.3969 -1.34416
-4.34652 15.6789 -1.82577
18.8151 6.83609 -2.33533
-20.9109 -14.3233 -0.753616
-19.4131 -4.39594 -1.72269
4.05111 -11.4325 -2.46824
-17.8226 -12.0871 -1.88217
-13.4763 -11.6461 -1.97828
19.6378 -4.98463 -2.36979
-6.44243 -28.9943 -2.65431
-5.64788 10.7701 -1.83141
-4.17144 13.0063 -1.88834
2.31681 -12.3907 -2.57053
-1.88949 -14.7136 -2.6305
-16.4192 3.69213 -1.52415
-11.3584 -37.4026 -2.65371
24.4381 -23.7661 -1.65609
7.0798 -4.30418 -2.40762
20.2336 43.5199 -0.74233
-0.755317 27.0834 -1.63472
9.31554 6.37488 -2.24603
-11.3084 33.017 -1.55906
-6.80963 11.1842 -1.65362
4.69966 2.71235 -0.251947
-0.561681 7.33993 -2.10031
-13.8031 7.42237 -1.58585
-12.8428 16.303 -1.32022
25.5407 -12.6897 -2.19889
16.2803 36.0383 -1.75785
-28.9154 18.4234 -1.12231
-12.1619 1.27974 -1.72322
-4.38981 -4.63602 -2.2411
-38.8901 13.8534 -1.14571
9.16755 -0.552047 -1.90197
-12.5668 3.87637 -1.69906
-21.3878 -33.2226 -2.19289
-7.2977 -13.9252 -2.21603
6.95606 -2.22114 -2.34633
14.8396 0.94838 -2.49224
21.6794 -16.4462 -2.91208
-31.1544 9.61439 -1.25349
7.16855 -19.3689 -0.0774539
-27.7674 -20.498 1.15981
6.26639 5.75844 -1.90392
-18.1391 3.4958 -1.57783
-10.8204 6.12953 -1.66832
4.21302 23.2166 -0.83639
-2.70304 -34.4829 -2.91899
35.5494 -30.2412 0.968645
22.3272 -4.01163 -1.70682
0.950471 -14.8076 -2.6302
-12.0584 10.0722 -1.58345
-8.32633 15.2968 -1.45374
7.30806 -42.1636 -2.3815
-10.3319 25.8512 -1.34302
22.6679 20.2188 -1.85538
3.15369 11.4617 -0.801762
6.63868 1.89263 -0.263693
7.5963 -43.3762 -0.869102
-12.7508 14.4173 -1.41758
8.03713 7.1972 -1.22535
-2.91347 13.8296 -1.96062
5.43632 -28.3571 -0.345519
35.7263 -32.9034 1.55537
-32.9258 -5.78991 -0.642785
-17.3734 19.1174 -1.23163
2.17322 -17.6609 -1.51775
20.9274 27.0304 -1.30264
25.4241 13.3996 -0.361527
-9.25179 48.8778 -0.846769
6.74281 -16.3126 -2.37581
5.71672 -11.6413 0.257256
-1.46088 -28.5397 -2.72919
23.8143 26.5959 0.128024
10.9694 6.93623 -1.04237
-26.7917 -21.8049 0.328855
-4.99911 -4.68815 -2.12287
-28.1387 -12.6395 -1.33319
25.7428 -25.1374 0.149852
2.3016 11.1633 -1.45454
37.0249 -17.8212 -0.364599
18.0126 40.384 -0.66781
37.3502 -23.3696 -2.46536
27.9783 0.595027 -2.15514
0.485365 7.58977 -2.10251
-2.39864 9.2714 -2.05629
5.0919 -15.6559 -2.31945
6.23747 -7.43441 -2.50494
-2.62666 -27.4 -2.62268
-15.7815 23.417 -1.21991
2.20372 23.6293 -0.411029
-12.8173 9.12446 -1.58859
10.2347 -0.335597 -1.15399
-4.15993 -12.2429 -2.37476
-0.383757 6.76669 -2.0918
-14.1099 -24.8299 -2.21141
0.361577 -9.59428 -2.5031
6.49373 -18.8782 0.773384
0.913882 4.82831 -2.16008
5.923 3.04264 0.192877
-2.37518 32.1521 -1.58664
-11.2753 45.7828 -1.0404
-24.5126 -34.5997 -2.1149
-11.7416 -17.4983 -2.22866
-4.61502 4.75173 -2.00864
9.20395 -8.74944 -2.21593
25.2906 0.845749 0.897186
-1.42569 -25.8535 -2.94442
41.4029 -12.7043 -0.868014
-16.4857 40.3352 -1.23764
-21.986 -0.360974 -1.54677
-20.4979 12.0473 -1.42165
-6.72472 3.98854 -1.82579
-32.7551 -8.08263 -0.648591
38.307 -3.4974 -2.61148
6.63401 -17.5331 0.182138
-8.42593 13.8215 -1.43482
-8.68669 11.1169 -1.63916
-19.6948 -7.47331 -1.71388
21.9627 -25.9272 -3.05563
23.6694 -27.548 -1.15005
38.3916 -27.315 0.97481
-4.84627 -17.8648 -2.51249
3.92583 10.6067 -0.418206
-12.0147 5.64026 -1.63304
-14.374 -17.3856 -2.12221
42.063 -9.77889 -2.95611
-42.5054 -23.1689 -0.161611
-2.23993 -16.286 -2.62864
9.39761 0.839362 -1.60152
-3.66007 31.9883 -1.58512
-4.8694 -5.93583 -0.803111
8.98393 3.72387 -1.72376
-12.1961 27.3982 -1.30816
10.5735 0.0663032 -1.98898
10.3824 0.958174 -1.43373
-2.40601 16.131 -1.91531
-20.0459 20.1289 -1.22758
5.37694 3.09203 -1.74853
-4.0293 -18.7421 -2.48795
-10.5055 2.19579 -1.7623
-0.901642 8.69129 -2.06795
21.6806 -4.9756 -1.93053
-45.2136 -0.803578 1.41409
22.2888 -5.90347 -2.00864
1.65596 25.3035 -1.19666
24.4853 2.22306 -2.01425
-13.8451 13.9096 -1.45124
-7.07054 -4.33626 -1.95792
-37.2543 -1.02006 -0.340435
-25.6021 39.5462 -0.787363
-1.41249 17.5793 -1.89507
24.6313 -23.5586 -2.66519
-7.59546 -7.46274 -2.05704
-46.2565 -0.0837806 0.9198
6.42091 -5.32364 -2.43095
-10.4609 -11.5108 -2.08158
-10.0819 9.91644 -1.64853
1.73198 -6.40633 -2.44471
-21.8558 -14.674 0.635271
-19.7256 3.46335 -1.49453
24.8659 1.41434 -0.144784
-32.2512 -14.5387 -1.36131
-5.98782 -4.07413 -2.05284
-12.7549 -9.40982 -1.9255
3.26347 -16.7562 -1.24552
20.7533 -5.25155 -1.98656
2.89465 3.67914 -1.02462
21.1163 -24.2845 -2.88394
9.50441 -28.7197 -2.70389
-28.2088 -11.7565 0.506336
6.66536 -10.0369 -2.19295
18.6662 30.8615 0.556874
-9.87049 -17.8671 -2.28934
-8.68892 -2.86835 -1.92632
6.79971 -1.67719 -1.96418
4.19745 12.5369 -0.767408
-8.90236 0.275937 -1.84856
1.48392 37.7484 -1.22151
16.8813 38.9988 -1.39952
7.54964 -19.8568 -0.960454
22.896 -23.7995 -2.96402
18.9492 -15.865 -2.93831
23.6819 -0.573283 -2.06963
-9.68026 -12.6185 -2.13346
-5.13453 -27.3059 -2.65041
-11.0685 -2.50789 -1.89547
20.6133 44.0166 -0.16733
-10.0077 -19.103 -2.28485
-26.6134 26.767 -1.03797
-32.9059 -6.02532 1.11022
-5.41393 -32.1121 -2.73856
0.36013 16.946 -1.90319
2.76893 -5.97923 -2.42062
1.78944 36.7304 -1.41713
-28.9244 -11.4079 0.139293
26.5526 -0.0981231 0.468994
41.8614 -12.009 -2.17719
-27.3652 -15.1085 -0.030562
-33.4342 -0.0811754 -1.07285
5.14897 -19.2881 -2.45927
36.9209 -27.4702 1.47632
37.3043 -12.9212 -1.52515
2.85053 9.90811 -1.42208
0.0914238 42.6219 -1.15121
3.97973 0.0394774 -1.74802
10.7279 -0.688186 -1.65559
-6.3923 22.3702 -1.63313
-21.6897 4.88081 -1.43647
27.3237 2.63582 0.150831
36.805 -15.4054 -2.49141
44.5393 -7.99419 -3.36574
-18.6788 1.12072 -1.60366
-11.105 -18.5999 -2.2959
-11.0208 0.236572 -1.82535
-33.2017 -2.92583 0.301544
13.6478 -37.8419 -2.7317
-34.0325 5.81126 1.12046
17.2081 -9.23973 -2.76384
-1.93424 18.3249 -1.87494
-15.1215 -1.38895 -1.74036
-2.16472 -8.50148 -2.51059
5.89112 10.8177 -0.407629
10.7558 3.55602 -2.3666
19.0953 -4.55794 -2.64333
2.74886 -22.6307 -1.60171
-14.3072 5.038 -1.63101
-1.32104 -11.2697 -2.54048
37.2388 -20.7592 -0.385363
-5.47757 3.49523 -1.93147
-23.8562 -7.21803 -1.63639
-13.9865 -1.02135 -1.76081
-26.1181 -5.5625 -1.61963
1.55872 -9.45333 -2.49628
9.80882 6.70615 -2.24905
-18.4208 16.952 -1.33401
-25.5396 -22.6067 -1.87221
-33.5511 1.76388 -1.08038
-9.37263 15.7399 -1.44019
20.9896 6.89795 -1.53989
-27.545 -4.20093 -1.5041
-17.3023 17.646 -1.31361
-4.55893 10.908 -1.89165
-33.5514 6.36003 -1.10449
35.8961 -27.5418 0.944867
-24.5783 39.5871 -0.224584
8.82238 -19.0225 0.66905
7.36366 -7.70699 -2.51092
20.273 -19.0643 -2.98336
-4.24357 -15.5582 -2.36291
9.17796 -2.31502 -2.41212
-7.32431 14.1611 -1.59552
19.2482 -0.377706 -1.76721
-29.4318 -32.3894 -1.95801
19.577 -2.75039 -2.30751
24.2614 -0.697619 -1.98623
23.302 -11.9073 -2.79165
38.0464 -27.3576 -0.135002
35.3263 -27.5619 0.373885
3.87539 4.65152 -0.415081
-4.0092 -6.21837 -2.29348
-3.41239 -28.5116 -2.74376
5.37977 -21.4444 -2.48695
12.4058 0.407321 -2.48477
-26.9256 -13.8979 0.144533
0.332658 -14.756 -2.61623
-4.37325 15.0258 -1.83
23.1282 -23.8764 -1.6101
6.43001 -8.71309 -2.39788
27.6967 0.178866 0.962566
4.8504 5.12419 -0.517592
22.1002 -10.7111 -2.76927
-0.978447 -6.46283 -2.43098
-12.429 11.8049 -1.54419
-33.7805 0.631451 -0.885934
-25.5227 -14.7879 1.01829
-13.9785 -2.25843 -1.78324
-8.24726 3.19108 -1.80608
-2.96326 9.4384 -2.0522
-36.8482 -2.34189 -0.333926
-15.1785 6.07997 -1.47137
-26.7986 -21.6795 1.16067
20.7971 -3.54627 0.416326
1.68649 8.32415 -2.04513
-10.4585 46.2628 1.4016
26.5463 10.6769 -0.872517
36.9234 -17.2044 -2.26489
-22.0538 -19.5125 -1.96385
-7.12212 -15.0115 -2.23858
12.9584 -7.1365 -2.69773
-33.0444 -4.17514 0.303096
23.8523 10.2032 -0.936463
25.5692 -26.0222 -0.695043
5.35583 2.82324 0.0541233
24.3998 -29.1943 -2.79465
19.5733 -12.4425 -2.87283
7.88575 -2.13131 -1.88074
3.79863 16.8619 -1.25702
13.844 -4.11021 -2.62588
19.3899 -17.8169 -2.98632
-2.90091 -19.0488 -2.61737
-26.4556 2.85482 -1.42919
12.2467 -8.93185 -2.10589
22.9251 -7.80692 -1.98094
-10.2507 4.97952 -1.74432
-11.5989 4.2903 -1.73171
19.3065 36.2531 1.07639
-4.08702 6.91376 -1.99256
-6.22661 -9.73552 -2.11905
5.88925 -4.9339 -2.42215
3.4164 13.8201 0.175638
4.77585 5.3253 0.319434
18.8294 30.3211 0.772521
12.1571 -38.1859 -2.72086
-38.511 15.0228 -1.14844
6.39423 -15.5942 -0.324136
0.860347 -7.96651 -2.47904
22.2958 33.9602 1.30482
37.7161 -27.8633 -0.952872
19.0506 9.74355 -1.85116
22.1603 -15.3702 -2.88406
-15.3494 -6.14447 -1.81808
19.1896 41.796 -0.947574
8.10944 -19.7421 0.677244
3.32027 -15.3762 -1.72099
-26.4436 -19.8619 -0.0393932
-11.9114 -9.87648 -1.97883
3.89252 3.51804 -0.555616
8.58249 -23.0871 0.306541
13.6384 -5.32617 -2.66586
17.6531 36.5641 0.600839
-5.26109 -6.94275 -2.07128
12.0037 -15.0049 -2.83111
20.2567 28.9415 0.766738
-29.7925 5.21388 -1.31302
-33.6306 5.3598 0.516393
27.0779 -11.1796 -0.519782
-3.79864 -10.4965 -2.39613
-36.4817 10.1305 -1.24937
25.8394 3.44443 0.153416
-0.575726 -21.4929 -2.80469
16.9571 -16.9049 -2.97583
23.0956 27.7112 -0.308354
23.0145 7.11272 -1.82559
6.85015 -11.3668 0.258335
27.1068 -24.4919 -0.501452
6.67153 3.50132 -1.71475
-9.48965 -11.6602 -2.11028
-24.4471 -16.6723 -1.81134
1.53235 -11.2786 -2.54691
-6.26389 12.9344 -1.66355
3.2661 5.03078 -0.526491
-7.06906 -7.21161 -2.05486
18.8221 32.4786 1.22462
-27.1328 -15.5457 -1.35218
5.52384 -18.5638 -0.056195
20.0234 -13.2161 -2.84577
-27.4638 -10.0485 -0.212801
-45.672 -2.20112 -0.71695
-3.7546 5.73235 -2.05345
-6.80559 7.57238 -1.76136
20.0436 -3.8893 0.0556468
-0.167354 14.7872 -1.97565
35.6808 -32.8891 0.388558
-7.59304 -6.54329 -2.03577
-0.512605 12.4441 -1.99337
20.5533 -0.837421 -1.90034
1.01846 46.9108 0.587238
2.13521 13.6533 -1.55561
-45.5064 0.0119759 -0.164742
-25.9789 -21.2701 0.547664
-28.6276 -15.5825 -1.23678
37.569 -25.3561 -0.672635
-29.8151 -27.6408 -1.80747
9.8343 6.76815 -1.01988
18.8201 -0.111973 -2.52409
24.0704 14.6942 0.480269
-17.406 25.9552 -1.20401
7.43802 -22.9617 -2.56983
-22.7185 -15.7619 -1.83409
-22.419 -7.1417 -1.6697
19.1039 5.11912 -1.8183
-32.2173 -14.9407 0.555816
-2.76569 12.0963 -1.98962
-46.1871 13.811 -1.0391
2.39815 46.5841 0.858307
-5.29901 -2.62847 -2.0609
-13.7612 6.03871 -1.61123
-45.9197 0.862879 0.0849715
-18.3058 25.0573 -1.19413
-8.11259 -3.68391 -1.96173
-20.7842 40.3258 -0.507646
-11.669 24.1978 -1.2887
4.32968 2.81697 -1.64768
4.71936 19.8306 -1.29266
26.2671 -21.7581 -1.47776
27.8452 5.96607 0.48602
4.9815 -17.3822 0.611978
-15.21 34.0321 -1.47881
1.80386 40.995 -0.378082
21.415 -19.6711 -2.77221
35.363 -27.9889 1.45147
-16.7643 41.4412 -0.207115
48.4246 -1.24842 -3.07243
10.9343 -15.5961 -2.80613
-9.84755 4.22663 -1.74684
22.4945 -3.4238 -1.84974
-1.26082 -5.33347 -2.39871
-22.9056 -18.8884 -1.98208
5.47449 5.35889 0.368452
-5.75825 14.2714 -1.79799
-16.0401 27.9278 -1.24735
20.0514 -10.1434 -2.77627
-3.19605 -10.2468 -2.39829
-32.8912 -4.85079 0.904935
37.1024 -18.7047 0.132216
12.7395 -8.69085 -1.84687
-9.5106 1.25979 -1.79632
19.9333 -8.72831 -2.56157
16.3253 -15.2746 -2.91015
3.38976 3.08137 -1.99477
4.50201 2.48883 0.315532
-20.7968 -12.7871 -1.14345
-14.6306 -1.81276 -1.76493
-29.6899 -2.90796 -1.44782
-32.4384 -11.5172 -1.32128
28.4157 3.35629 0.300668
-22.2576 -4.89044 -1.61086
-14.4318 -28.0123 -2.28901
37.4072 -23.3166 -1.44442
3.07568 8.49013 -1.2211
-7.92221 12.9249 -1.60327
-27.6067 -12.1814 -0.0251842
23.552 32.0662 0.592937
-10.8792 40.0731 -1.16724
-21.0634 -1.358 -1.58937
35.4877 -29.7981 1.49309
-24.7974 -24.7673 -1.92792
6.36105 -8.10095 -2.53908
-20.9206 21.3227 -1.13893
26.4354 8.3424 -1.47971
-16.5648 1.51909 -1.50735
17.1516 5.36632 -2.3979
8.29181 0.95962 -1.46143
-21.3734 -12.9285 -0.286343
-9.02625 19.0871 -1.46237
-10.236 -39.4943 -2.77697
37.8094 -12.8722 -2.94631
-32.1965 -16.7521 0.326242
15.6911 40.1695 -0.407784
39.3188 -12.8084 -0.369899
24.104 28.1365 0.124973
42.4239 -9.06357 -3.21809
4.30769 -8.62457 -2.49508
10.6294 4.48758 -1.39781
-10.2229 20.7918 -1.37303
-11.0705 -0.498016 -1.83976
-4.64191 -32.9262 -2.79982
-24.4197 8.80364 -1.38932
-11.2829 11.839 -1.45961
3.62245 18.6597 -1.40243
37.905 -19.2643 0.130493
44.4679 -11.5937 0.120897
-9.3874 8.46304 -1.6876
10.8875 -3.40869 -2.5027
8.70372 -1.54646 -1.9073
-18.0856 -2.65877 -1.68357
25.4535 -21.7454 -2.43509
26.2469 -21.2528 -1.84285
3.86812 24.2999 0.153212
4.14896 6.93806 -0.052074
-1.91734 6.0414 -2.14656
25.5822 19.2338 -1.55312
1.24764 9.66992 -2.02826
-16.6504 -24.773 -2.16001
-22.3581 -13.0384 0.294487
2.00737 14.3772 -1.72452
35.5079 -30.163 -0.126088
21.2839 -24.0897 -2.33131
23.6279 -1.09498 -1.52791
-2.82822 5.67036 -2.16113
19.5391 0.771807 -2.38618
14.3281 -4.53545 -2.63196
26.36 10.0497 0.972651
5.23599 6.42671 0.286496
-33.7352 13.6847 -1.20162
-38.6446 -1.8043 -0.360584
37.3185 -22.6337 -1.16863
3.35571 -5.4913 -2.43169
-42.3227 -22.4775 0.1076
-12.3038 -13.5251 -2.03177
-9.48153 -4.26182 -1.99088
-23.1608 40.9382 -0.791746
-10.0733 -20.0687 -2.11057
-10.8688 -13.2614 -2.09521
-0.641436 -9.54258 -2.49383
-14.9097 8.92826 -1.57502
12.2531 -40.4957 -2.88302
-9.89399 0.182843 -1.86522
26.1813 7.24401 0.294705
6.36386 -28.5349 -1.77254
14.7781 -5.65717 -2.66736
43.574 8.35463 -2.79833
26.6788 5.61373 -1.28982
26.1629 -20.6457 -1.25455
7.48766 27.6204 0.983145
2.13278 39.4155 0.518973
3.43159 46.0886 0.573008
9.67621 -8.33452 -2.22808
-2.81835 10.838 -2.03052
-9.08248 16.3037 -1.47117
-15.7437 -22.8876 -2.14688
-15.9094 4.83252 -1.50136
18.9042 21.6624 -0.709908
37.3197 -21.4408 1.39273
37.022 -18.7103 -1.10119
-9.3814 -0.918036 -1.87753
27.3903 3.43033 0.794885
-22.8857 19.9503 -1.16107
25.0474 -13.0303 -2.68527
12.331 -8.97449 -1.17615
7.44038 -23.2431 0.743811
-26.7636 13.6725 -1.31071
35.3987 -28.9946 -0.1263
-12.7489 -12.4886 -1.97844
-4.00267 -20.8031 -2.50676
7.31405 -1.47787 -1.7862
-6.84362 20.4998 -1.50037
-13.0246 -1.40387 -1.80199
11.2831 -0.837281 -1.9481
5.31583 -22.8772 0.730468
-2.00735 -11.1589 -2.53818
-35.0261 -3.03346 -1.13656
5.04721 -28.3455 0.322762
13.6096 -6.97876 -2.68431
-5.65407 -35.9272 -2.86157
1.62385 23.0666 -0.668612
37.8709 -20.1089 -0.388991
24.3524 1.26504 0.597134
6.13977 11.8843 -0.705168
-27.568 -8.68894 -1.39346
20.0663 11.9931 -1.38108
27.9302 6.43506 0.816313
0.538206 -15.3695 -2.61993
8.1103 -6.31307 -2.52438
-37.405 -2.36215 0.557717
-46.3073 -1.98978 0.334347
5.80809 -22.0376 0.29935
-2.51635 11.4262 -2.01985
6.171 -18.3422 -2.37791
8.30449 -38.8521 -2.92599
6.22459 23.05 -1.25005
-29.0282 -20.3284 -1.74618
-10.47 7.13428 -1.69943
-12.6099 -16.9713 -1.97719
-4.26211 -27.7421 -2.67822
7.69638 -18.8764 0.420077
25.8508 -23.5886 -2.74154
4.71509 -9.96853 -2.54868
14.4782 5.09891 -2.41089
2.09019 12.6265 -1.81272
2.53748 13.8362 -0.910649
0.174008 29.8066 -1.62127
-12.4564 -10.6387 -1.99181
-27.7911 11.9147 -1.31466
8.07517 -9.0974 -2.33315
6.56464 9.75221 -0.593218
3.49958 14.267 0.606145
1.97867 7.35055 -2.10363
23.8546 22.8844 -0.0485162
2.69986 20.0983 -1.40156
-2.86808 8.21075 -2.08076
-23.1613 23.1828 -1.06497
20.4464 -6.914 -2.53818
-26.7853 -20.7567 0.549857
-14.5413 3.4453 -1.6977
1.96613 -17.6998 -2.07924
11.8727 -0.451928 -1.84227
-7.15864 -5.45851 -1.99749
38.3253 -0.0965324 -2.82241
-1.23724 -7.26523 -2.44654
4.60561 -16.4862 -2.30386
-24.5608 7.66078 -1.37513
24.0594 0.700311 -2.10596
24.0025 -41.4938 -3.0297
5.30019 9.10797 -0.438443
1.30533 47.6003 0.35691
-2.19893 6.9488 -2.10419
5.65271 7.31513 0.0229123
23.6562 11.3257 -0.949154
0.936913 38.7108 -1.02718
4.7535 3.27146 -1.81135
26.0841 3.30249 0.923124
21.8637 -28.1127 -1.12386
-14.8302 4.07294 -1.65923
-20.6922 -14.2509 0.460573
38.6417 -26.7738 0.124104
38.0935 -27.3338 1.49986
1.89957 -35.2494 -3.18543
37.2496 -20.7862 0.638329
42.2685 -11.4818 -2.19099
4.04076 1.74603 0.300421
15.7265 -12.4089 -2.84213
-1.58471 7.12908 -2.10373
-8.35086 -12.1056 -2.14337
-6.34195 -6.80429 -2.06593
36.6952 -13.5169 -1.93382
-5.36627 15.8223 -1.78669
-8.81856 -2.23707 -1.91017
-24.0982 -27.3348 -2.01084
6.97085 -17.5117 -2.43485
9.12008 -30.5511 -2.12693
-4.32113 -7.28422 -2.29662
-6.44783 -18.5826 -2.42587
3.86294 -16.0301 -2.63398
8.99361 -25.3299 -2.22656
20.542 34.7214 0.331481
-4.51822 18.1975 -1.69447
-10.5079 3.86157 -1.71824
-19.8718 16.1193 -1.36893
-13.6603 -9.40406 -1.92987
-7.88845 8.05113 -1.70276
-1.04898 11.7103 -2.02723
7.74017 -47.7633 -1.90102
1.83475 -15.0043 -2.11866
10.4594 -4.77093 -2.52703
0.699685 25.3054 -1.65426
6.58504 -0.48184 -1.87562
-33.0496 -3.76029 1.10152
-5.06686 29.7501 -1.64823
22.6677 -14.1339 -2.8545
-34.8043 -23.3502 -0.841396
-18.6232 -30.6886 -2.22666
7.24194 -11.0794 -0.603938
19.5912 27.214 -0.456822
21.7923 -29.1493 -1.1529
37.4351 0.554578 -2.75245
3.28941 4.42861 -0.199048
37.3096 -21.7291 -0.862127
43.8199 -11.4405 -3.10988
6.42744 -15.0853 0.181567
-24.6558 -9.95249 -1.61035
37.2956 -22.2667 -2.72962
-18.8328 -21.178 -2.04297
9.08477 -38.2292 -3.10216
-11.9436 8.48207 -1.64456
39.7668 -12.7412 -2.8511
23.0036 -13.0177 -2.82204
2.43563 14.9674 -0.464834
36.9173 -16.2841 -1.30603
3.18268 46.1471 -0.149305
4.998 -21.7718 0.445822
9.75368 -25.2931 -2.24686
21.2112 -14.2322 -1.94895
-5.40174 -35.4178 -2.81619
2.9157 -4.79362 -2.39806
22.1599 -26.8313 -0.885932
-11.5455 -15.4904 -2.15725
3.02229 26.1885 0.462814
-4.22936 2.29575 -2.06821
-5.39621 13.1735 -1.81546
-2.06143 14.9486 -1.93406
2.11444 4.0052 -0.490577
43.8876 -11.5527 1.45199
35.4551 -29.0223 0.954562
-7.65094 2.1281 -1.80303
-6.381 -2.81397 -1.99944
10.864 -11.5932 -2.69196
9.15208 -15.0528 -2.48653
26.3121 0.997455 -0.628754
-15.7379 -5.08734 -1.8173
-19.3374 -18.8706 -2.0846
9.02505 6.35119 -1.19889
-21.1072 -13.6986 0.158297
2.0052 15.5504 -1.40511
-14.4769 46.7025 -0.563022
35.414 -29.2875 0.378456
-11.4884 -8.09843 -1.96318
26.4425 -6.64455 -1.79081
-5.72786 20.4016 -1.69881
19.4623 29.9052 0.553124
-27.0239 -14.1436 -0.95003
2.76109 22.2335 -1.44085
25.6611 -26.057 -0.0540071
11.1363 0.869737 -2.43777
36.8945 -15.8929 1.07342
3.36837 9.78171 -1.11496
35.6533 -32.118 0.990324
3.54462 -9.97882 -2.51617
-26.7919 -17.1253 -1.54777
-10.5321 11.2718 -1.64529
-8.31129 0.590077 -1.87316
-19.009 -1.52394 -1.64032
5.9153 -22.4437 0.863942
-27.6103 -14.0389 0.142883
-34.6624 0.036682 -0.913802
26.3547 1.47767 0.466967
-10.8164 10.6924 -1.62002
-6.08339 -12.5323 -2.22021
-34.0881 6.33439 0.733763
8.25624 5.9653 -2.21052
-15.4441 1.84797 -1.68573
-29.3931 7.31101 -1.31595
-37.3513 -0.685173 0.784358
-35.2185 3.16369 -0.084557
2.41219 14.223 0.513056
8.22656 -4.16286 -2.44676
-27.5727 -11.1848 -0.0229019
37.1991 -27.4452 0.960597
3.26867 46.568 0.946511
26.3251 -25.8821 -0.705848
5.79673 -19.2309 0.655862
20.199 -8.54056 -1.77536
6.27913 -3.30227 -2.34265
9.99685 3.88966 -2.0147
-3.23682 14.7444 -1.93666
47.1772 -10.0499 -3.05447
4.98241 0.89997 -0.0721265
-6.75707 -15.877 -2.22405
-36.8912 2.31539 -0.543555
0.420452 -6.79573 -2.44613
-2.32936 -23.0123 -2.75173
23.4131 31.3815 0.120053
-1.81993 10.5574 -2.03456
-8.22176 16.5692 -1.45484
37.2717 -12.9079 -0.084083
-16.254 2.59369 -1.68714
-12.2718 12.8277 -1.4944
3.88912 12.8272 -1.17242
21.8372 -1.36221 0.423379
6.10459 -13.0958 -2.29027
27.4818 -18.4303 -1.03367
38.2664 -9.41407 -3.11593
37.6841 -20.0718 -2.67978
2.41464 8.04154 -1.41527
35.5049 -29.9342 0.380353
-17.704 5.38253 -1.57859
10.0477 -14.85 -2.18629
-22.1722 -14.2525 -1.24974
-9.05572 33.7881 -1.56209
-28.5245 11.1301 -1.33373
-9.42392 14.1973 -1.5257
-12.9636 5.24853 -1.64467
2.55329 5.71775 -1.99107
2.33864 5.43357 -0.700278
1.32047 13.4248 -1.92125
-26.1261 -22.3475 0.769092
7.45403 6.5255 -1.85328
-21.23 -24.8252 -2.01197
1.57833 24.0233 -1.26359
18.096 -14.9129 -2.90802
-17.5454 -20.1291 -2.05742
19.649 -11.26 -2.80008
2.12577 -19.1976 -2.75115
-1.06992 -20.4501 -2.79139
-33.5592 4.00587 -0.480733
-6.0363 -4.99 -2.03539
5.86211 -40.6753 -0.577682
37.1125 -20.2181 -2.65053
18.9231 4.95186 -2.38513
10.4788 -1.76119 -0.0586374
8.40808 -17.8479 -2.42591
1.99035 -7.739 -2.46947
22.1358 -2.41476 -1.93359
0.592222 7.04407 -2.10794
-5.90378 42.0662 -1.20456
2.46935 21.8341 0.80331
-8.54273 -7.16206 -2.03382
38.2165 -20.0769 1.39565
-22.8242 30.1566 -1.0452
-6.12102 18.5257 -1.65442
-10.4587 13.6113 -1.54075
-29.2611 -1.09872 -1.41813
38.161 -11.8347 -0.571515
-6.71562 -23.1921 -2.28152
6.51131 0.970889 -1.63302
6.36952 -9.55581 -2.20098
-4.25535 -1.91265 -2.16033
6.43133 -10.7621 -0.104901
1.12406 -5.45419 -2.41273
27.8344 0.63647 -0.00347109
25.2343 -14.0011 -2.74908
11.7097 1.00388 -2.46457
-33.499 5.16268 -1.09399
22.4814 -23.6226 -2.54192
19.8676 -0.0365957 -2.06964
-15.5769 -9.65298 -1.69174
5.5158 4.09211 -0.0134138
-7.64413 20.1787 -1.49838
-6.44489 -14.6774 -2.26289
8.50579 -43.8543 -1.18801
12.6297 -38.5542 -2.25254
-9.57344 -14.942 -2.17537
-27.5365 -3.05022 -1.49473
3.22776 -12.9585 -2.58675
5.78764 1.05619 -0.053194
3.76907 3.85989 -1.62888
4.68755 11.4618 -0.843291
-37.7229 -21.614 -0.122946
-21.8781 -14.5439 -0.164004
10.4532 -1.0206 -0.873266
-5.18277 -20.5256 -2.50506
2.73341 3.65806 -1.91954
35.5816 -31.2444 1.52141
-33.5203 2.76694 -1.08247
-23.7201 -19.9938 -1.90651
-4.94137 0.913669 -2.0592
8.78097 -20.9263 0.171667
-3.80944 7.39214 -2.06697
11.7174 -7.23039 -2.64102
-32.8794 -6.87735 1.11433
-15.379 -8.55849 -1.83306
26.5274 -10.6318 -0.349521
-8.15199 47.9217 -1.07795
-43.1844 6.69629 -1.21174
12.6289 -22.1479 -1.66365
-16.8515 27.2514 -1.23998
26.1664 4.86124 0.293624
-17.42 11.8276 -1.46718
37.4899 -24.001 0.931932
20.2123 30.2511 -0.31187
27.3869 -24.3167 -0.943127
-21.992 -22.7329 -1.94573
-28.1543 -10.9637 -0.0269171
7.03457 -43.0265 -0.625052
26.3373 10.1529 -1.03694
38.2931 -20.0998 -1.4139
3.82346 -6.11839 -2.4248
-5.66049 -44.9208 -3.10269
-29.2104 -5.65313 -1.11768
24.7781 22.8562 -1.64686
-16.0692 -7.97673 -1.65125
-5.52815 4.0701 -1.8867
0.465831 -38.535 -3.27167
-27.0301 -14.2968 0.510018
-11.1865 -20.724 -2.22272
-9.86102 27.7509 -1.27946
-5.58841 -8.96682 -2.15016
-7.74539 3.86382 -1.75369
-31.1943 -23.3081 1.28092
2.38287 -15.3951 -1.7033
4.57817 -28.8909 0.324509
25.5592 0.0588052 0.155343
-25.8315 -13.2972 -1.5728
-11.4986 -32.9449 -2.55201
0.593154 18.2853 -1.67282
25.6258 -11.5925 -2.16572
-22.7717 -9.53012 -1.61836
4.5385 9.82951 0.183021
-26.6224 -15.8327 0.311339
29.4234 4.04408 1.01564
-23.477 10.3853 -1.37145
-17.0667 8.13424 -1.5065
-6.98636 8.45688 -1.76021
-3.88058 -16.4111 -1.5422
6.24019 4.39462 -1.9856
3.02284 3.4 -0.398848
37.4434 -23.3927 0.925872
-34.6141 6.09972 -0.316022
-42.8425 17.6702 -0.993963
18.1079 31.8267 0.562206
10.8594 -14.7113 -2.23243
26.604 4.35813 0.780775
-11.3752 13.3818 -1.47453
3.20274 3.37176 -1.46998
-21.5578 -23.7949 -1.97491
26.7128 -40.9627 -0.462303
35.5866 -31.5757 0.384834
37.6738 -20.1915 0.358378
8.82394 -8.28965 -2.31924
21.4627 -7.82438 -2.1348
-11.5442 0.399067 -1.79595
-27.5176 8.00302 -1.38621
21.8674 -14.183 -1.99266
26.655 -11.4041 -1.55392
-5.63083 12.0443 -1.83511
-45.5594 1.49687 1.15001
-15.8614 20.8849 -1.25318
-7.78829 -17.0268 -2.30495
3.6636 9.70209 0.427266
25.1997 -13.353 -2.04656
7.95152 -7.72347 -2.54544
6.65963 33.4712 -0.0561246
-4.87627 -1.03229 -2.11026
25.8406 4.06542 0.153062
-24.3138 -15.4127 -1.75745
6.43001 -23.2342 -0.984004
42.7938 -11.6125 -2.48461
-26.1663 39.2186 -0.229426
25.4227 5.42999 0.29141
-31.4164 -22.3384 0.593877
-3.55711 -11.2995 -2.42199
-14.0766 7.93433 -1.44762
