ply
format ascii 1.0
element vertex 1850
property float x
property float y
property float z
end_header
39.1921 -0.285289 -2.89093
-6.27758 -15.9361 -2.20654
5.75289 -27.6773 -2.51441
-37.3795 2.30753 0.106298
-5.76939 -39.8516 -2.9717
5.01272 -13.0036 -2.20674
-18.144 -3.08174 -1.69671
2.7579 24.9393 0.450493
-3.4997 12.7116 -1.99395
-13.8938 20.4157 -1.31072
-5.21602 4.4239 0.380925
17.1235 31.3778 -1.3718
20.0097 -10.2414 -2.77729
-6.85375 19.1566 -1.50418
6.58678 0.145892 0.348241
21.4423 -26.2213 -3.04558
27.0036 -7.68029 -2.3281
-21.0843 -14.6537 0.917586
-2.3133 -45.0095 -1.47176
9.81544 -22.4334 -2.76998
21.2286 12.811 -2.17729
-7.99019 6.92016 -1.69899
3.30472 10.6893 -1.49833
6.70833 -18.4173 0.412002
-9.35604 -22.7773 -2.33127
-11.2757 41.2578 -1.2091
18.8645 -0.883192 -2.53391
-21.5601 -24.4953 -2.00998
27.0596 10.0584 0.665721
-15.0403 -23.756 -2.17482
-14.8414 10.4949 -1.54055
-3.7226 -19.975 -2.51139
-29.3467 6.09371 -1.29962
-2.40503 -38.3246 -3.03047
1.60923 30.0281 -1.63945
-12.7941 16.7073 -1.34169
7.67381 -38.4607 -3.09624
19.5271 4.8411 -1.01721
4.76831 5.18009 0.355289
-24.9794 42.9616 -1.10512
4.82726 33.3118 0.133632
12.5533 -9.28887 -1.39984
-28.4431 -22.9628 -1.80551
8.15321 6.00297 0.238189
-34.6275 7.59224 1.14251
10.189 -18.5286 0.79963
-36.3985 -2.99269 -1.62365
4.56181 -24.0496 0.620319
8.34886 -14.2041 0.57114
-9.3347 -11.0097 -2.09904
-1.62715 20.2239 -1.84991
-29.2483 -14.7227 0.908182
24.2966 20.1261 1.06096
-9.11664 -6.36608 -2.02545
6.346 12.1272 -0.399669
-10.8905 5.31015 -1.68563
-24.8927 -24.0852 -1.90342
-23.9802 -27.3746 -2.00787
-12.5421 -16.4876 -1.93365
27.672 2.8152 -2.14067
11.1363 0.869737 -2.43777
-3.09854 -29.0068 -2.79007
35.5843 -26.2399 -1.18073
-32.4289 -13.0153 1.1592
-9.16718 0.291219 -1.814
3.75151 0.889658 -1.66651
2.65033 -22.5595 -1.85442
40.6372 2.62321 -2.77972
-13.1289 26.8797 -1.30469
32.1487 -4.4864 -2.35702
11.7359 -14.7544 -1.73414
18.7802 41.1884 -1.23535
1.7986 -9.39169 -2.49092
8.52466 -1.91631 -1.88529
-9.69627 46.2218 1.39667
-21.1704 -34.1815 -2.23437
0.866053 46.2015 1.09375
27.6609 -0.559903 0.962003
-33.0013 -4.8909 -1.46411
-10.5473 -39.1585 -2.75937
6.40371 -19.7894 -2.45277
12.2531 -40.4957 -2.88302
-24.7513 -10.6857 -1.6353
-28.6162 0.37666 -1.38192
13.4219 3.89362 -2.42956
7.49629 -14.98 -2.35728
17.4824 -20.5743 -3.06823
-6.79949 25.5898 -1.59957
21.8349 -3.95845 -1.92659
-1.60726 23.6875 -1.79131
0.300052 4.77677 -2.14333
-5.98025 -2.68904 -2.00334
1.8642 15.2082 -1.74624
-8.97346 16.3435 -1.46938
9.86369 -38.3532 -0.556451
26.5203 8.28888 -1.83069
-46.0378 0.621128 1.43382
-31.2841 9.54573 -1.25811
-26.0315 -4.64427 -1.60205
3.14416 45.4189 -0.996734
26.3263 -22.0253 -1.07599
12.7852 -12.0281 -2.79515
1.84464 -15.6751 -1.82383
0.30132 -32.4413 -3.12139
0.769952 -38.4896 -3.26796
-27.8325 19.9493 -1.12136
20.5499 9.57365 -0.919592
-17.0492 6.01849 -1.5365
10.1608 -29.0796 0.330795
3.24328 -35.216 -3.19119
-18.4729 -6.10267 -1.80598
11.792 -18.7962 -1.80368
-9.87049 -17.8671 -2.28934
-21.0912 41.4825 0.0301798
-20.074 -21.8077 -1.97366
17.6051 26.8594 -1.00789
38.716 -26.8515 -0.707201
12.4092 -47.0733 -2.74179
-29.577 -9.31962 -1.1712
9.01698 23.1292 -0.585202
-11.5357 22.3648 -1.33951
-4.86943 -5.96663 -0.184837
-15.2837 -31.7464 -2.37648
17.5016 -8.25392 -2.73558
4.39984 -5.14493 -2.39282
14.8269 33.1942 -1.79326
-25.4723 -20.3584 -0.250304
19.5871 20.1543 -2.01756
6.84718 -29.3127 -0.00166556
2.5332 37.9669 -1.00585
-25.1751 -33.03 -2.06834
-28.6795 -16.8763 -1.266
7.41082 -9.90135 -2.16421
-11.6005 -1.35111 -1.82556
2.46935 21.8341 0.80331
-19.6046 45.6392 0.279623
23.4703 -11.2562 -2.77569
-5.67554 40.2927 -1.3754
-5.07546 7.12617 -1.94009
-18.8658 16.1105 -1.32023
-21.037 8.27862 -1.46559
-14.6398 45.0019 -1.04616
-33.1152 7.14923 -1.3094
24.3998 -29.1943 -2.79465
26.2175 13.206 -0.0190536
-15.8439 -36.8897 -2.50935
-1.45984 -11.8746 -2.56402
35.5243 -31.0453 0.1314
38.6205 5.50543 -2.65438
-38.85 -24.4207 -1.52678
30.2892 5.59818 -0.0270812
21.0063 30.59 0.124383
22.0472 23.1561 -1.96387
-25.0602 -15.0592 0.836879
-31.3706 21.4416 -1.0437
37.3954 -22.5667 -0.112636
-4.04596 18.5827 -1.72176
40.3827 -12.6617 -2.89234
-7.40634 -13.2683 -2.22112
-3.99182 -9.72642 -2.35618
21.2647 -20.0349 -2.78635
22.7074 -38.9609 -2.83884
45.1745 5.39032 -2.87413
-33.6355 3.81317 1.10546
23.1052 16.8027 -1.89046
-4.80282 2.99552 -2.0485
2.41867 48.3616 -0.165939
6.32024 5.73729 -1.95987
36.7629 -12.9245 -0.0805124
-35.8509 17.3446 -1.10087
-22.0634 -2.24993 -1.56234
6.49757 -42.2328 -2.37791
25.6845 -12.7803 0.155601
-16.8732 -28.5079 -2.22469
-1.24301 34.6347 -1.54067
10.706 -28.7144 -2.38074
2.78275 19.7687 -1.37665
8.69271 1.61872 -1.33642
-19.2066 2.91061 -1.5595
-22.4627 37.3164 -1.23775
-11.3402 -4.60104 -1.92897
10.6358 -43.8646 -2.83776
-21.8172 21.2136 -1.16437
-14.2643 -9.40827 -1.88898
-7.69456 -24.9745 -2.48386
2.94503 5.39841 -1.70566
-32.7781 -2.03213 -1.43979
2.95893 -29.1431 -2.8006
-17.3744 39.9504 -0.716971
-1.09982 -5.88689 -2.42845
38.2931 -20.0998 -1.4139
24.5048 -6.15975 -2.38113
17.7347 1.6007 -2.4959
-4.33816 34.3511 -1.54108
-27.9135 11.6073 -1.31424
28.2942 5.46258 -2.22509
-29.0303 14.9077 -1.26251
-27.8849 -19.7746 1.14995
21.1237 35.0023 0.854687
6.30256 25.6073 -1.24517
-14.9375 -19.2679 -2.15049
-19.858 -28.2833 -2.13784
-7.86026 25.7175 0.880861
-20.1064 -10.5893 -1.72768
5.90567 20.0016 0.77303
-19.1424 -19.0993 -2.08635
26.1449 -6.6745 0.00729415
16.7289 -17.1586 -2.97869
23.7843 -20.9148 -3.03627
-3.56438 -7.08754 -2.3133
4.65544 2.38075 0.34909
19.7529 -3.88861 0.640592
-13.4125 4.40747 -1.66508
24.9759 -25.5597 -0.915248
26.1291 3.89969 0.15258
-17.8691 20.6613 -1.17154
18.599 13.3954 -1.19007
-27.3695 -10.9247 -1.42341
-8.58637 36.4698 -1.48477
37.4325 -24.9277 -2.52052
-1.89029 -22.0408 -2.7484
-16.7074 0.502909 -1.51716
-2.47285 -35.9284 -1.56781
-6.68419 -5.38443 -2.02792
40.3442 -7.2136 -3.2491
-2.54683 -46.9382 -3.22745
0.00213922 40.0495 -1.30724
-21.1867 11.6991 -1.45124
-32.6442 -7.98762 -1.28759
12.1995 -24.966 -1.67664
-10.6255 46.2232 -1.04755
-16.4447 -11.4515 -1.86863
22.1437 -23.8702 -1.99535
36.8501 -15.292 -1.28929
-11.9854 -22.5965 -2.26409
-36.8879 -0.794765 0.308167
26.6698 -11.2507 -2.08003
19.2942 7.40144 -1.53629
-38.85 12.5555 -1.12973
-36.9624 23.1791 -0.936697
1.22226 17.7034 -1.83149
3.58639 40.4267 1.30712
-1.02954 29.9889 -1.63463
8.38382 7.25062 -2.2023
24.0025 -41.4938 -3.0297
-22.0483 24.1556 -1.06259
42.7401 -8.99166 -3.24132
-35.2491 -21.7497 -1.62341
-7.39396 -34.4309 -2.76558
4.20824 -17.9997 0.732427
-1.07403 7.04574 -2.115
-33.7605 13.0862 -1.19359
-15.5957 -26.2463 -2.21283
19.4001 24.5739 -1.91902
19.2192 -15.3819 -2.9258
-23.9389 -38.386 -2.26747
25.5822 19.2338 -1.55312
21.802 27.7332 0.763739
-15.985 37.1093 -1.36859
-30.9795 -22.9404 -1.7091
37.547 -10.386 -2.86902
-6.17537 -11.0517 -2.14776
-23.9808 14.3673 -1.35206
-11.0422 28.3858 -1.33157
-0.248235 -43.0677 -3.42016
25.0751 1.64118 -2.06331
-27.3764 -2.50722 -1.48177
45.3687 -11.3098 -0.139583
-5.89548 13.4971 -1.7102
-23.9191 -6.0137 -1.61734
18.1674 -11.9539 -2.82202
-33.4942 2.39499 -1.08013
-42.3567 8.90787 -1.19993
-29.3943 -13.7836 -1.41318
-0.561172 -14.2112 -2.61967
3.8684 -10.7967 -2.55372
-27.3498 16.9269 -1.24208
1.71394 -18.3834 -2.72668
-29.832 -28.2792 -1.82929
11.8666 -6.96475 -2.63868
19.0744 -3.36159 -2.60429
14.0585 -2.20115 -2.583
-12.2758 38.8697 -1.38142
-26.1584 39.1865 -0.529083
26.9059 -24.3754 -2.44835
-32.6882 -9.52665 1.1303
3.50319 23.4872 -1.40789
-11.9167 32.7922 -1.55885
-40.2575 -22.3891 -1.53565
0.215354 9.96019 -2.04847
-22.9139 -18.7729 -1.97723
0.675128 -24.2709 -2.89593
-6.89252 1.27964 -1.9072
-17.492 -23.5211 -2.11844
37.0724 -17.9633 0.876486
-10.5289 11.9735 -1.60546
7.14345 -7.40073 -2.53195
-6.34048 5.03141 -1.80025
-2.5133 38.3019 -1.52907
-9.75213 -20.3089 -2.11806
-31.2062 -20.8599 1.23994
-3.61903 -15.3589 -2.52582
-13.358 -3.15349 -1.80533
-14.7181 15.1965 -1.35179
-23.1379 0.0220759 -1.50498
-9.89955 -30.8932 -2.53388
41.9843 -12.5295 -0.404601
2.74295 -6.94217 -2.455
9.41049 -24.6527 -0.302758
6.0827 -21.939 0.851575
-22.9581 17.4708 -1.25018
16.1587 9.65766 -2.2902
-46.0188 0.0172743 -0.970855
7.8885 -20.3032 -0.608064
8.35075 -28.018 -2.60733
-4.21826 -25.0172 -2.40408
3.50892 7.92803 -0.273219
22.0921 4.45067 -1.44555
4.575 10.2794 0.513044
-33.4821 -31.7563 -1.82292
-11.4243 -12.2092 -2.03825
-9.00845 42.0721 -1.21663
5.99295 -25.9996 0.0219658
20.5838 -8.01781 -2.05806
37.4775 -3.29862 -2.54967
-19.5593 -8.25118 -1.72886
21.4182 -0.608819 -1.98768
8.15917 -40.3426 -1.07897
-6.63251 -29.1943 -2.67691
-9.54723 33.7337 -1.56634
-16.0898 8.39774 -1.53996
-12.9143 9.04287 -1.59258
-32.2289 -15.813 1.18876
17.7147 40.0074 0.63139
-4.84627 -17.8648 -2.51249
-8.36917 10.5179 -1.63185
-7.58371 -38.191 -2.86807
16.9361 38.9574 -1.39891
19.6863 22.1124 -0.537074
7.2374 -48.0175 -1.90862
-1.5425 14.0773 -1.9628
-14.0605 -34.0562 -2.49251
37.909 -27.3822 1.49657
-29.4376 -33.1277 -1.98488
14.5585 -14.259 -2.89833
25.2535 -1.39991 0.0162589
-2.09701 27.867 -1.70004
4.4759 -15.3184 -2.24391
-20.3869 -14.4409 -1.78373
-7.61959 27.8186 -1.56654
23.7145 29.9413 -1.23727
9.68115 -5.42892 -2.54177
25.1562 -9.43096 -2.21952
-0.636793 -45.4618 -3.37729
6.43336 -17.098 -2.35512
2.79039 13.0522 -1.41601
18.1769 33.6842 -1.24029
10.8476 -1.45889 -1.95911
-30.1432 -20.1392 -1.79127
12.0781 12.606 -2.22099
-12.8726 -41.9363 -2.75642
-10.5062 14.3826 -1.49698
-7.46725 31.6817 -1.60746
2.55072 -47.2189 -3.51906
-25.4614 20.6564 -1.06493
6.96682 -0.156677 -1.98498
-3.43927 29.872 -1.6403
-40.1063 20.201 -0.958604
-11.8409 -28.3285 -2.38966
-31.2529 15.6411 -1.1465
3.80603 16.4495 -1.32385
-15.8369 -3.44456 -1.7746
18.6581 36.621 -0.825019
8.33102 3.94351 -1.39473
22.1045 -29.0747 -0.293566
7.25548 -12.2905 -2.25955
-25.0413 12.1261 -1.34438
-18.4777 7.85346 -1.49518
23.1327 -14.278 -1.7851
-29.7669 39.3105 -1.09423
4.01663 3.29402 -1.72624
13.0911 -44.6458 -2.93056
21.2545 -16.4947 -2.87709
-18.6398 12.4754 -1.44997
24.0959 7.31771 -1.918
-27.1092 -13.8843 1.04212
13.8219 -4.51116 -2.64515
-18.0912 24.6405 -1.1705
1.25176 24.6711 -1.47265
26.7558 1.34522 -0.462272
-4.74612 31.849 -1.58604
-23.0139 4.81109 -1.40218
-7.03605 -43.5615 -3.01964
1.72568 14.3661 0.600185
-14.5256 1.49183 -1.73834
-13.7183 -14.5152 -1.85756
8.12885 28.225 1.00358
7.63198 -25.5856 -2.53562
-22.5787 -43.045 -2.44825
-11.9786 45.9592 1.40288
-15.869 28.535 -1.26761
-15.7291 -7.2077 -1.79766
-14.6288 -21.5354 -2.15719
-1.51399 -27.4073 -2.94973
5.14443 20.6691 -1.24205
-4.46926 -30.7954 -2.78877
-43.5991 17.2624 -1.00781
-1.82189 46.9887 -1.2912
1.39983 38.7816 0.747902
0.555904 -7.43089 -2.4735
25.5692 21.8633 -1.64308
-23.4337 19.6663 -1.17156
-33.0177 4.62284 -1.28399
-12.5873 -6.58022 -1.88321
18.5428 31.115 0.318701
24.9066 -40.099 -1.55456
-37.0336 -20.4282 -1.66361
-8.52751 -15.8691 -2.21137
-9.41208 -8.79339 -2.04758
8.4503 -43.8212 -2.49163
-14.7628 12.7043 -1.43991
-5.4376 27.4765 -1.70477
4.54411 -42.4719 -3.3893
-25.3812 -21.8953 -1.83688
-16.6358 22.54 -1.20683
-23.6522 -3.82375 -1.56596
25.3039 -3.01587 -1.80661
6.96837 -16.2277 -0.135488
23.2845 -27.2468 -2.4149
-0.0344791 31.9842 -1.57049
-7.41832 -1.03265 -1.90539
-27.6314 4.66933 -1.35015
-12.6682 -30.6903 -2.42035
-17.4998 -43.9899 -2.65958
23.0274 2.33828 -2.44387
-5.04964 24.2896 -1.75636
6.74024 3.18378 0.230815
24.9309 5.69608 -0.155149
-19.8002 43.9376 -1.07052
9.65645 -14.8275 -2.59538
-35.2828 -3.03394 1.15735
24.378 13.3298 -1.32114
-11.4497 7.40793 -1.6774
-36.4817 10.1305 -1.24937
-27.2273 24.3386 -0.996513
-28.018 -7.70941 -1.57601
-10.3758 -34.6028 -2.64767
-8.60468 20.4249 -1.42161
-4.02599 10.5849 -1.95367
-19.3206 -40.1712 -2.49493
25.9156 -27.4282 -0.310453
44.9903 -1.3577 -3.09394
-32.4719 -12.7616 -1.11847
1.13718 46.8598 -1.02583
-32.617 0.44583 -1.4301
-13.1905 35.0583 -1.4864
10.7788 -40.2782 -0.819555
-22.2698 -12.9223 0.46422
16.0692 -5.46531 -2.68827
-20.5643 28.6192 -1.16572
-26.7109 -17.6776 -1.56021
-10.8909 -45.9266 -2.97822
34.0669 -19.7758 -3.11327
-32.779 -36.2524 -1.93765
-38.595 -0.102505 -0.7804
5.4647 -25.5574 -2.47901
-3.15322 16.6512 -1.91072
-7.14779 -21.584 -2.41762
-26.4903 0.310438 -1.42156
-25.8037 28.9334 -1.07251
7.16943 -1.89173 0.193944
-35.0322 28.0642 -0.972818
-1.70531 11.5754 -2.01775
-25.0211 -19.0132 -1.9345
-24.5137 8.53553 -1.38927
-1.71698 -19.3378 -2.76744
-11.293 24.4695 -1.29331
-14.1777 18.3085 -1.37533
-8.75204 -32.8125 -2.6609
-33.2788 -22.9674 1.3197
-29.3728 8.28814 -1.32791
-18.6968 18.6727 -1.26532
47.639 0.718138 -3.01883
6.74757 -23.3592 -0.555914
27.9869 4.82705 -0.194862
-1.44959 -33.8969 -3.05561
12.9096 -38.3942 -2.98583
-31.9468 -17.3698 -1.40274
-22.5949 6.87218 -1.40902
-16.6577 11.5475 -1.50988
-34.2242 18.6663 -1.07424
22.6057 26.1107 -0.286369
-10.2562 3.29039 -1.76249
18.8121 35.7299 1.06172
26.1479 -24.1963 0.150242
8.3045 -21.0078 -2.54217
47.8929 -8.95782 -3.36199
-6.47538 21.2072 -1.54528
38.4675 -12.8834 -2.01388
14.9927 -8.74893 -2.75575
-27.364 6.8614 -1.36111
-22.6193 -14.464 -1.62632
-23.4398 -29.3811 -2.07894
37.1265 -20.1206 -3.12588
22.2039 -3.42385 0.0400936
-28.5752 2.44671 -1.38602
-27.3441 -15.6772 -0.240022
2.94897 -13.9158 -2.61176
19.3897 42.1234 0.941564
-24.7949 16.3025 -1.29203
-29.7787 -4.16779 -0.397501
-21.6365 39.393 -0.500841
-9.81542 -24.9583 -2.38157
-20.7851 -26.4445 -2.07664
-35.2185 3.16369 -0.084557
26.9746 10.8446 -1.23491
26.5253 -40.9883 -2.45712
-5.34692 44.5481 -1.28464
0.0278727 -10.4605 -2.50026
7.97138 -23.3649 -2.33055
-20.1921 -3.1589 -1.65539
-16.6124 -1.53435 -1.72021
-34.4675 -3.06112 -0.909328
25.9916 18.0577 0.876238
-18.6941 -16.3498 -1.90131
4.33429 34.9952 -0.917156
2.49741 45.0154 1.42891
-3.95783 -2.44455 -2.17333
-44.277 4.66536 -1.2367
10.5698 -9.66176 -2.26135
-12.5084 -10.4429 -1.98018
-21.3576 -20.2013 -1.9598
-25.7696 41.4584 0.0219172
-18.9286 42.1732 -0.221592
-3.08389 7.49398 -2.11566
-14.6872 46.203 0.592684
-37.1344 -3.03182 0.311923
-19.419 -24.3072 -2.08001
0.410643 -16.8199 -2.69143
6.22857 -44.215 -2.80613
26.4687 4.60307 -2.06042
28.0375 -18.4242 -1.05087
-23.0037 12.5878 -1.40919
4.64067 -29.3183 0.70663
24.7374 15.2729 -0.892
-15.5066 -13.5573 -1.92621
0.280069 19.4891 -1.79523
4.33091 12.062 -0.432408
-22.743 -10.5108 -1.64526
-0.194655 42.0532 -1.38285
-32.9596 -5.00029 0.72857
-20.7971 -36.2221 -2.32766
-4.68293 -32.8399 -2.79269
25.5458 9.40072 -0.476216
-12.9818 0.168143 -1.77842
-17.108 44.4533 -1.05504
21.236 -5.86677 -1.91043
-15.9215 20.2486 -1.22695
16.2401 -1.31388 -2.57228
-7.14201 15.5699 -1.53068
-24.571 -14.8215 -1.75148
-34.5561 5.61811 0.92606
41.1384 -12.6406 1.38863
6.78083 10.1664 -0.402751
-44.7741 -0.789156 0.62251
-10.6022 -26.7771 -2.40333
38.1666 -12.8446 1.31341
18.1121 4.88852 -2.39987
-12.1672 10.8754 -1.45812
-1.98562 18.279 -1.87034
1.46909 -27.8297 -2.9965
-24.4572 1.49198 -1.47031
-16.4399 -5.36713 -1.79461
23.0628 21.4433 -1.71185
-46.0227 13.9203 -1.03594
-3.43269 14.6755 -1.9335
-29.9737 30.4166 -0.916912
22.1133 9.48012 -2.10697
-16.6535 15.9375 -1.36934
-12.4818 45.4735 -1.04098
28.8074 6.48306 1.01001
-6.6475 37.1572 -1.49652
6.97602 -3.03744 -2.37605
-28.3842 -21.377 0.140159
9.40025 -0.146701 -1.85373
-28.6012 -37.4652 -2.12101
-8.16015 -26.8723 -2.50058
7.22229 -38.6587 -0.75466
-6.83979 11.734 -1.64526
37.4351 0.554578 -2.75245
6.15941 6.54613 0.450057
21.4536 -27.4003 -1.09362
36.6951 -27.448 -0.127236
-29.2794 -11.3114 -1.36113
25.442 -36.9759 -3.33142
15.6275 -12.6138 -2.84991
-8.04747 29.7057 -1.68746
-1.42555 -30.8624 -2.96469
-11.3584 -37.4026 -2.65371
-13.8291 -25.2626 -2.23145
3.9163 -3.27442 -2.32814
-20.7525 16.6957 -1.27762
-17.2106 -19.0457 -2.12524
-25.7029 4.75876 -1.40048
45.9109 -9.1035 -3.2214
37.4914 -24.5399 -0.414745
9.49952 -3.50917 -2.4696
5.81649 -10.9817 -2.09005
24.2542 0.39298 -0.398908
-8.88095 5.21302 -1.7338
20.6464 -2.44315 -1.92341
-26.6965 -10.3919 0.298136
-26.209 10.4763 -1.36245
21.3257 28.6048 -1.75545
2.21017 -20.2357 -2.77254
-10.9995 17.3778 -1.42047
45.1503 -11.353 -2.09374
8.48301 -17.6781 0.639448
17.5496 18.2574 -2.08276
23.0597 -2.50272 -1.75127
1.02663 20.5824 0.766356
-8.78808 8.65418 -1.70275
-21.1826 -6.90768 -1.68992
-26.5535 -28.3445 -1.92432
11.2609 -23.9865 -3.01168
1.99492 40.633 -0.860052
-3.46385 -23.1039 -2.64072
22.0668 -37.1778 -2.71372
-22.9945 43.2381 -1.09163
9.8756 3.05098 -2.33847
3.19887 25.358 -1.35252
-0.691309 -41.1367 -3.25928
-15.2826 4.74982 -1.63008
-27.7989 -24.7606 -1.83848
-7.6801 -17.6071 -2.36897
-22.5435 -16.5607 -1.85731
20.2387 5.97858 -2.34722
-9.05049 24.4377 -1.39378
11.3079 -13.2027 -2.76937
-21.4618 1.00871 -1.50615
-2.42249 -13.6709 -2.55589
4.65158 -20.4768 -2.48035
1.88469 23.2755 -0.255857
7.10956 -40.5045 -2.79811
-4.79036 -5.66353 -2.15137
3.36804 21.5538 -1.39765
-18.5086 4.8379 -1.53067
10.2322 -19.0553 -2.8149
5.71937 -19.9896 0.796574
-17.8826 -32.4151 -2.30137
-20.9945 3.45966 -1.48843
-2.61001 22.1072 -1.79416
-3.18741 -26.572 -2.54529
-0.73625 25.3522 -1.65776
-4.08777 -40.9639 -3.0417
-14.374 -17.3856 -2.12221
19.8253 0.619501 -1.82535
-10.6844 -16.197 -2.16767
5.65494 1.10882 -1.61296
17.9329 -10.1092 -2.78555
24.1596 2.75449 -0.400753
35.4514 -29.1316 -0.127214
-13.3856 22.2513 -1.23894
-1.93245 -43.8293 -3.25282
22.9143 -22.5847 -3.0879
5.8313 -18.49 -1.22056
-1.58596 -36.5693 -3.09907
36.0115 4.17473 -2.65887
-27.8403 -12.7148 -1.32111
-6.55227 17.3286 -1.55909
-7.0009 23.6014 -1.4708
11.2648 -22.3012 -1.62696
20.0835 12.2622 -0.832268
-12.3407 19.4134 -1.36333
4.48448 22.8602 0.0270791
10.4614 1.90346 -0.88537
21.1697 21.1066 -1.98761
36.8064 -16.064 -2.96326
-11.5267 48.4016 -0.575741
-25.3365 -16.7251 -0.221653
-29.0989 10.1103 -1.34285
-0.274137 -25.8495 -2.93907
19.6181 -20.8066 -3.07156
42.5649 7.06035 -2.71558
3.19136 6.24789 0.398371
2.54191 42.1909 1.35265
6.17862 -12.567 -0.490886
5.49 -6.6176 -2.47103
23.6403 30.2895 1.01779
13.2204 1.05455 -2.52619
-31.4932 -22.1253 -0.081137
0.322343 14.2541 -1.96967
-10.4503 38.9035 -1.3618
-27.8534 -4.70299 -1.52748
-12.9216 -26.8618 -2.31531
-3.03023 -18.0111 -2.59454
8.76771 -29.9886 -0.563594
-18.0542 -10.5517 -1.82211
7.52975 -43.0035 -0.383326
37.138 6.55466 -2.55913
11.0648 -11.4023 -2.6916
-31.5973 19.639 -1.0165
6.89555 -29.1038 -2.67221
21.7942 -11.9565 -2.80588
9.9513 6.5719 -1.52405
-11.9308 -14.6909 -2.10947
44.7457 3.49604 -2.83245
1.99118 9.56413 -2.03248
-4.35363 8.7842 -1.95095
-39.6033 29.0288 -0.82327
25.8286 0.0911143 0.911737
-24.6954 -12.5805 -1.68593
6.55555 -13.9903 0.549091
37.2373 -20.7447 -0.105338
21.7917 -17.8771 -1.85695
-5.52013 -19.9708 -2.44829
30.0805 5.47837 -2.03548
3.26347 -16.7562 -1.24552
-4.58135 5.37951 -2.00745
-6.56715 8.10155 -1.73461
-2.27219 -10.2161 -2.50106
-5.16683 -14.4967 -2.25301
-12.6087 6.04187 -1.64156
-7.46877 -3.77304 -1.92167
-8.42505 47.3064 -1.06316
-21.0759 -15.6178 -0.628842
1.70805 11.3332 -1.97665
-16.3619 -30.2175 -2.31396
27.4433 -12.5286 -0.0146492
-21.6872 9.98606 -1.42914
-23.55 -7.81964 -1.62819
-32.5316 -11.2817 0.753663
-19.009 -1.52394 -1.64032
-46.3073 -1.98978 0.334347
36.9917 -16.9541 -0.584435
-20.7998 -12.8794 -0.574569
3.41462 47.1808 -1.0443
-10.9414 0.32389 -1.8112
-40.9572 -23.2445 -0.150672
20.2425 28.9549 -0.0667882
11.7189 -16.137 -2.83592
-21.992 -22.7329 -1.94573
16.3243 37.2466 -1.58865
8.18453 5.492 -2.22646
35.7704 -33.1137 -0.141064
-12.4674 -18.2658 -2.07617
-8.19023 17.968 -1.45417
-30.0628 4.48464 -1.32028
10.1891 -20.2874 0.706665
24.1329 -27.8117 -0.699188
22.719 34.292 1.07771
27.9571 -24.3777 -0.710474
-18.4401 1.31488 -1.58164
25.5931 -22.2483 -2.65243
-0.279551 21.4264 -1.83569
-17.6677 -14.9324 -1.89743
-3.76508 -16.4129 -1.137
16.9311 -18.9151 -3.02608
-12.3235 15.0149 -1.43217
4.1902 14.6558 -1.36062
25.9277 7.87963 0.294283
10.625 -17.4093 -1.89249
17.535 -4.52545 -2.64346
3.29083 4.44489 -0.200073
39.798 4.14622 -2.72785
38.161 -11.8347 -0.571515
41.5172 1.1078 -2.83904
-19.9695 9.64814 -1.4328
-3.47811 -45.4769 -3.12629
6.58146 -27.6315 -0.336463
-26.4907 -20.8044 1.13852
-10.8483 -6.3063 -1.98563
-9.70968 7.18758 -1.66982
-0.22791 -18.4548 -2.72646
4.5205 0.6681 0.142524
-8.32469 -29.6967 -2.58494
-10.0372 21.3901 -1.40463
-28.7915 -21.2721 -1.76518
28.2106 1.17541 -2.17625
-2.0669 -40.0111 -3.16953
27.6399 -39.8444 -3.33571
-32.8783 -6.29664 -0.464491
35.4983 -29.9987 1.49693
-38.3597 -2.44913 -1.26251
-3.69425 -37.1614 -2.94258
-19.721 -12.2631 -1.76965
-36.8575 0.905706 -0.737038
20.5024 17.6118 -2.07602
37.3229 -21.7567 1.39725
-28.6949 -12.9785 0.140142
-19.9739 20.1199 -1.22466
17.0577 33.2995 1.22126
37.3295 -23.4195 -1.72428
-5.23334 -7.37935 -2.09711
-3.14749 -33.93 -2.87319
5.63522 -17.0626 0.717884
-16.1237 -22.3584 -2.12914
18.1835 21.1561 -2.00117
19.5912 27.214 -0.456822
-0.431394 -22.9745 -2.8608
-9.9013 -1.46297 -1.89972
-19.7473 13.7699 -1.44166
9.35635 -38.659 -2.92931
1.15041 -14.2769 -2.63795
-19.3134 -4.62982 -1.71859
37.0974 -18.7242 -0.822641
15.2555 15.0713 -1.99108
-6.4726 3.29857 -1.84677
18.9323 -13.4663 -2.87867
4.83237 -0.415596 -1.64386
22.753 28.8279 -0.317744
20.3854 -14.9128 -1.79032
2.87806 46.4271 0.574862
-8.05866 -7.68768 -2.03383
-10.7195 -10.0166 -2.05334
11.6214 4.15681 -2.33793
2.20962 -11.1091 -2.53313
-9.34966 -12.7674 -2.12237
24.4123 -25.314 -3.16852
5.20597 4.47335 -1.94828
0.0202581 39.5894 1.28016
-21.0335 -18.5338 -2.02325
24.7673 18.7727 -0.0328753
6.59566 -21.4609 -2.52748
-19.0077 39.8648 -0.202144
-9.30007 -4.69269 -1.9975
25.1301 -11.821 -2.46103
6.99604 26.9977 0.79767
6.90919 4.88785 0.436228
5.49111 -3.86512 -2.3485
-9.21147 1.97248 -1.75561
0.420197 35.0442 -1.56412
17.3936 -0.0415163 -2.52846
22.2845 -10.0723 -2.75648
26.1873 -20.5271 -1.8127
24.5665 -7.83018 -2.27014
8.83951 34.9571 0.12845
16.0497 -15.5984 -2.91381
-0.410053 46.089 -1.26152
-13.7184 -7.81281 -1.91458
-4.42613 -21.6869 -2.49324
-24.2287 -25.619 -1.94029
19.0901 9.61323 -1.72628
-1.78401 -48.4178 -3.33198
36.7852 -13.8766 1.28792
2.83323 7.05466 -1.555
3.22982 18.1633 -1.35523
33.1703 10.2881 -2.53868
-11.0691 -2.95864 -1.91652
5.35407 27.3704 0.649065
24.2965 26.2916 0.318301
17.6092 -2.2973 -2.58726
-3.4904 -11.3425 -2.42649
-22.2722 30.1082 -1.03286
17.3135 -6.60659 -2.71152
8.15125 -19.3582 -2.47758
4.2421 9.40793 -0.856214
0.936913 38.7108 -1.02718
0.935577 47.842 0.357644
24.051 20.0184 -1.69966
-34.4508 6.58766 -0.508936
-27.344 -9.22087 -1.56293
41.8704 -12.5125 -2.1853
1.52011 6.11877 -2.1261
45.0679 -11.338 1.48156
-32.8046 8.7686 -1.3137
4.9221 6.58363 -0.638452
-34.576 -22.8593 -0.608109
13.1933 -7.9396 -2.70469
19.794 42.7484 -0.72486
-2.36555 -43.3695 -1.41129
5.09126 18.6046 0.394231
-4.99731 -3.99909 -2.11582
-3.73537 27.7637 -1.70381
23.842 -23.7764 -1.63342
-5.80844 -12.9064 -2.25713
-32.3507 -14.4283 0.320939
-14.5362 3.20655 -1.69087
-21.0575 -0.958075 -1.58682
-15.4214 -38.5828 -2.60289
-1.39914 -29.1346 -2.78922
2.28992 36.4 -1.40382
-4.63689 20.3005 -1.78072
-16.6031 -24.9597 -2.17007
12.8775 -14.387 -2.84446
26.593 0.94822 -2.03909
3.26032 -8.66419 -2.50169
2.5211 3.85985 -2.0567
-28.3677 18.3936 -1.10378
12.2828 -0.161206 -1.90846
22.8497 -6.08937 -1.92921
-14.4543 -27.4062 -2.24781
-7.52036 -9.80377 -2.09174
22.0303 0.91956 -2.31885
-24.8085 -0.093182 -1.4912
1.62219 -35.3035 -3.18933
-10.6721 -21.636 -2.28095
-24.6377 40.6278 -1.04693
22.2156 31.1968 1.01493
-1.18453 5.42255 -2.15485
20.9002 19.2077 -2.03981
19.3233 -8.7636 -2.7466
29.4509 4.03959 0.30414
17.6526 -15.8082 -2.94113
-4.54307 -28.0794 -2.71711
-5.80261 -1.03872 -1.93971
11.7503 -5.33536 -2.59883
40.6121 -11.6293 -0.616372
-37.6146 -22.7306 -0.658906
-11.7331 3.92935 -1.7344
23.0036 -13.0177 -2.82204
9.78459 -41.4857 -1.37887
-20.5552 45.0898 1.45492
4.98259 34.8951 0.548957
8.47325 -6.50195 -2.51083
14.4782 5.09891 -2.41089
-2.94171 24.6466 -1.75568
-27.4602 -11.855 -0.0233942
22.1992 -0.747373 0.813611
8.98892 -9.43311 -2.28227
8.02824 -16.5352 -2.48005
-29.2054 -16.3028 1.12484
-10.9394 -23.8289 -2.32489
8.02787 -19.2747 0.667175
-21.4633 -32.539 -2.1611
-22.6354 15.3594 -1.31829
25.9914 -11.3032 -0.496086
21.537 -28.2903 -2.59934
-0.441083 8.51109 -2.08878
1.88981 -32.3426 -3.11637
-9.67483 -40.4846 -2.83646
35.6279 -31.7871 1.53242
-0.305099 41.3804 1.32867
37.4191 -23.3417 1.42245
2.51879 15.7412 0.640031
27.2238 2.20117 0.789114
12.2196 -28.7342 -1.90794
-47.5915 0.925963 1.47474
21.1175 -24.679 -2.91259
2.34918 -38.3684 -3.26243
8.37011 -13.6631 -2.33463
26.1538 -6.55319 -1.61908
6.67101 33.543 -1.08652
43.2433 -11.5129 -0.665417
44.3939 -9.52473 -3.11872
26.6992 -25.6239 -1.41142
-13.6216 24.827 -1.22322
-2.93255 -8.56097 -2.36764
6.22419 -14.0088 -2.22869
-33.0642 -3.61716 -0.462702
-19.7151 6.88206 -1.45472
-18.2489 -22.0965 -2.06756
9.4437 5.11253 -0.893897
-25.3167 -3.23455 -1.53962
37.2025 -21.3448 -1.6731
-26.1927 -11.9955 -1.5586
37.5148 -25.886 -1.22366
-1.04565 38.9068 -1.5526
8.07979 -0.307739 0.190869
19.1281 22.4635 -1.95904
8.26872 -16.0177 0.713427
3.27916 2.1517 -0.363543
10.7596 -39.736 -2.28898
-7.74552 49.2144 -1.11002
-23.9428 3.51934 -1.4495
11.3272 -1.22853 -0.48767
2.62908 -24.0729 -2.88713
38.852 -11.2391 -2.75522
-16.3205 9.99749 -1.52716
-10.974 -19.2653 -2.08186
7.14286 -14.7837 -0.697869
-17.6937 3.39366 -1.64901
6.00941 1.86399 -0.222202
-26.3228 -19.7014 -1.42899
11.56 -8.44955 -2.2556
0.563807 16.2957 -1.91149
-34.2046 -1.43835 -1.10249
9.08604 7.97461 -0.887369
-25.6783 -6.18849 -1.59973
-13.5801 -22.6839 -2.19307
1.38392 20.7967 -1.77587
24.3222 -39.6957 -2.93672
-29.7101 -23.7664 1.25818
-2.78835 34.4575 -1.5373
18.3783 6.41655 -2.37206
-2.00691 -7.27371 -2.43474
-2.68148 -5.77092 -2.44896
12.5133 -2.31876 -2.55473
2.97145 -4.54377 -2.39754
1.63875 45.6822 -0.145119
6.36075 -8.76476 -2.39835
-17.6903 -7.43779 -1.77989
-37.9262 -1.67576 1.22287
8.09544 -46.7793 -1.55853
24.531 27.6659 0.987566
23.4129 -15.5136 -2.67069
-12.5696 23.5986 -1.28199
1.50718 -22.969 -2.86538
-29.2611 -1.09872 -1.41813
37.9149 -28.1961 -0.709473
-14.7756 -10.9419 -1.92465
20.7234 -3.40562 -0.457695
9.77373 -29.9412 -2.64086
-6.70756 -6.92849 -2.05196
-3.64327 23.2495 -1.77504
20.7664 -18.3863 -2.97245
-25.4179 -9.29868 -1.64293
-38.9754 14.0885 -1.15112
18.4263 -19.277 -3.02748
-30.7846 10.9984 -1.25792
7.60491 22.5905 -1.10595
-6.4982 6.5678 -1.7643
-5.33932 1.55896 -2.00486
2.68865 20.3178 0.763291
-23.1608 40.9382 -0.791746
-13.0729 -4.69174 -1.83316
-15.2918 46.991 -0.571522
6.93343 4.33984 -1.87279
-3.15425 19.9362 -1.84207
7.69546 1.15226 -0.0410641
6.16169 -24.5093 0.309082
-1.96985 26.3458 -1.73663
23.4377 18.4011 -1.81619
-10.9444 -29.5601 -2.45755
23.5504 0.925724 -2.2078
5.2404 3.77569 -0.000409749
-24.4216 -34.3539 -2.10118
-15.2973 17.1521 -1.36366
23.9143 -37.6759 -2.80698
-8.71227 -18.8516 -2.33216
-3.52731 3.81054 -2.17915
-36.9568 16.1906 -1.11705
18.8208 -7.33112 -2.72738
27.2422 8.13276 -0.504495
-10.9438 15.8609 -1.41733
4.91021 -28.1165 -0.179922
5.0445 -19.0123 -2.42062
-18.2404 14.7304 -1.39755
-16.2096 -17.906 -2.12903
-7.15021 39.9398 -1.37168
27.4355 -40.3744 -0.992591
-17.879 -0.513337 -1.6407
-12.5257 -13.2508 -2.02553
10.2715 -20.9942 -2.90576
-22.3122 -14.3664 0.00734383
2.86753 14.6359 -0.616153
38.7195 -9.14086 -3.14769
20.8271 7.14197 -1.00216
7.89633 27.2489 -0.697951
20.3475 -12.3945 -2.82431
26.0141 -25.7288 0.344521
-5.39477 11.2448 -1.88176
-5.00573 17.4193 -1.63011
26.6979 5.56672 -0.475072
20.462 -4.52796 -2.19451
-30.7587 1.45937 -1.33894
-5.48791 -9.69348 -2.1537
9.95191 -24.4464 -2.3352
21.1322 27.1919 -0.475396
8.00575 -42.2143 -2.39185
-32.7339 -8.26215 0.309728
4.21251 48.0199 0.10218
-8.66306 -21.4474 -2.17903
-15.7524 -9.28269 -1.68728
19.528 30.3288 -0.50696
-37.5673 -1.18036 -1.00734
5.94191 -15.6743 -2.36045
-5.78489 22.7326 -1.64805
25.7601 14.1582 -1.09061
-16.7047 -35.5768 -2.45334
1.26649 -21.4361 -2.80031
-0.154 -12.617 -2.57503
3.28316 -12.1792 -2.57114
-1.92481 -15.3386 -2.63471
-0.0780077 -27.8425 -2.99405
3.09678 8.66431 -1.56272
28.1465 3.07397 -0.349772
-13.1805 40.0499 -1.18948
-20.2667 15.2272 -1.35433
13.2697 -39.5234 -2.07134
16.4018 -9.26809 -2.76239
-14.7179 9.00456 -1.56185
-6.19041 -35.3168 -2.81872
18.6884 -22.0143 -3.1041
-23.8261 -19.9551 -1.91035
0.39192 -5.93342 -2.47769
6.71419 -1.61639 -1.79857
-27.3356 -13.9881 -0.565546
-21.1371 38.1362 -1.23928
1.5031 32.1879 -1.58646
-12.6648 -23.9229 -2.24919
2.33475 16.8459 -1.335
-26.6272 -15.5018 1.05406
-7.25994 -14.747 -2.21276
1.92179 -17.1621 -1.90685
-0.338397 17.7253 -1.90208
1.28918 -25.8866 -2.94671
41.5891 -9.87373 -2.9239
-17.2754 -27.0816 -2.15211
46.6337 6.60378 -2.98274
36.6938 -5.31717 -2.7212
17.3812 36.1191 1.05546
36.7019 -13.8211 -1.51355
25.2726 0.143338 -2.0765
-17.1289 19.3841 -1.23354
7.44038 -23.2431 0.743811
21.8317 -7.32593 -2.43201
-2.21133 15.5023 -1.92449
-0.0387796 24.046 -1.8164
-19.1161 -20.6887 -2.0296
-22.1369 -3.72067 -1.58409
-27.9664 -6.23794 -1.55178
37.0204 -11.7607 -2.85995
40.6427 -11.2136 -2.8809
3.97824 24.1187 0.594556
6.32643 -28.6182 -1.39571
36.7925 -14.4527 -0.084196
-11.1992 20.4906 -1.38642
-0.694197 -38.596 -3.27775
44.4274 6.65122 -2.8356
-20.3298 1.96984 -1.52949
4.98513 -9.8296 -2.44764
22.7018 -41.6771 -2.38338
-26.7388 41.5521 -1.09744
10.4079 -1.8254 0.499009
19.5011 11.9612 -2.13895
-5.19096 4.3887 -1.12301
20.8387 44.1016 -1.0174
2.81845 13.4146 0.424617
27.913 6.54732 -0.199083
10.2176 -27.3373 -2.60167
-13.7935 -20.3402 -2.169
8.30127 -24.5438 0.637358
26.9531 4.92566 0.952639
-20.8767 -12.9287 0.885127
5.92822 5.53197 -0.574406
-1.84246 -4.58729 -2.35212
-29.9851 22.1242 -1.01994
3.14607 10.0212 0.492811
-28.178 -15.3933 -1.39412
4.48148 19.5215 -0.55185
-13.0307 -1.5935 -1.80685
-13.9347 46.2462 -0.81764
-25.6105 -22.8331 0.768698
3.52551 -18.5768 -1.62332
7.53906 -18.0373 -2.40287
-13.6585 11.777 -1.52429
8.57255 -40.1943 -2.79593
20.8572 36.2142 0.116052
0.0961174 -8.80554 -2.5216
-25.6169 -31.5879 -2.02226
-15.8775 6.97094 -1.57464
-4.88735 -11.7052 -2.24436
4.24508 5.23766 -0.986965
-20.8063 40.5157 -0.999734
-29.4261 13.5233 -1.25063
-27.0587 -1.01178 -1.45721
-8.45385 14.9848 -1.43516
-10.41 23.2605 -1.3587
-7.59759 -11.2665 -2.16219
28.081 0.726689 0.483881
41.953 -11.562 0.91104
-25.5299 15.0725 -1.29042
16.8091 34.0414 -1.4696
-23.2472 -1.44555 -1.51658
17.3974 19.961 -2.02956
-32.188 -16.4672 -0.307455
-20.1852 -5.88273 -1.70972
-33.8382 3.76661 -0.485602
-7.23297 14.1451 -1.58888
-45.8051 -2.83904 -1.27445
-6.25273 -17.6113 -2.42184
-17.3652 -4.29066 -1.64274
25.0735 3.07114 0.745059
-46.3698 -0.668821 0.922394
-15.6575 -20.4981 -2.13596
-2.49756 -35.4775 -3.00637
2.36429 39.8305 0.764016
-26.0163 34.8413 -1.23502
-22.4731 -5.76971 -1.64373
-10.0592 -7.49236 -1.98856
25.4579 27.5183 -0.0828998
-23.74 36.5474 -1.23857
1.512 13.4181 -1.92333
5.06303 24.9109 -1.19295
7.45981 1.1764 -1.89077
-17.8058 -11.9509 -1.87351
-28.0529 -15.4687 1.08627
-19.6065 11.0204 -1.45553
3.81813 38.0193 0.812428
0.194608 -15.4211 -2.6277
-11.3549 46.553 0.278369
-16.781 41.2603 0.0379515
20.4786 7.60254 -2.29358
-13.8313 13.981 -1.4547
-14.9802 -15.1335 -1.9974
3.1747 -15.0264 -1.76942
-31.1294 17.1856 -1.17102
24.5991 22.9063 -1.64154
38.1203 -19.5264 0.129969
37.589 -25.9318 0.370094
-10.6114 1.80392 -1.77019
1.11356 37.34 -1.44281
-21.445 -9.96413 -1.6789
39.573 -12.7705 1.34911
11.5626 -38.8043 -2.98483
-5.11562 25.6955 -1.72101
22.7242 -17.2679 -2.71655
-8.63571 -14.4597 -2.16654
-9.76156 10.7138 -1.61619
0.0348618 6.15383 -2.16114
15.7486 -6.84237 -2.72249
-4.49667 13.6834 -1.83787
46.752 -3.79556 -2.96569
-9.70489 17.9119 -1.40349
4.67948 -26.1174 0.489655
6.00649 -5.31594 -2.44497
4.08588 -6.55095 -2.44929
17.7255 32.1498 0.788671
-1.16877 10.2662 -2.05311
-13.4143 2.37347 -1.69431
-35.9853 5.80266 -0.0962696
36.7347 -14.6973 -2.6903
-40.5275 21.5302 -0.984889
-21.6207 4.76038 -1.42957
11.3204 6.83413 -1.54826
-3.74235 -16.7475 -2.52458
-12.488 21.1874 -1.30365
-9.14015 12.1039 -1.61009
7.4863 25.9373 -0.471613
-7.52091 -28.1055 -2.59673
35.3222 -27.6516 -0.119964
-6.92248 -22.9447 -2.26344
7.83504 -8.59369 -2.3472
5.90793 -1.34533 0.376223
18.6958 19.0336 -2.04656
-7.82825 25.6332 -0.673842
10.2424 -6.70489 -2.58928
-17.078 4.63661 -1.61417
-19.0465 -9.53612 -1.73567
23.19 27.9343 0.78013
14.9789 -3.75506 -2.59763
-38.5783 -21.6984 -0.420803
-4.29574 -8.38057 -2.25044
-45.3177 3.76 -1.26674
-27.0618 -21.7188 -0.0503427
2.92745 2.44777 -1.66323
-19.1114 -17.6599 -2.00092
-14.5371 -2.41023 -1.76533
19.1889 30.2505 1.17496
24.7822 4.8169 0.894017
-12.937 -21.4172 -2.21125
18.152 -17.0905 -2.96738
-3.06792 -21.3324 -2.67362
-34.1477 -28.0444 -1.73998
-45.1893 0.487856 0.32827
-21.568 -15.5619 -1.91086
19.8675 -16.593 -2.93148
5.1954 -21.8936 -2.53427
-6.68967 -25.907 -2.54677
5.07578 7.47 0.397158
5.06415 2.34672 -1.62666
-27.3749 12.8684 -1.32035
4.52112 10.7496 -0.852237
2.83223 -27.6906 -2.99226
7.05932 -0.624972 -0.700605
27.6797 3.77441 0.801827
-5.47368 -24.3296 -2.36161
-33.7137 1.05513 -0.884442
5.36411 -18.5243 0.181386
6.80685 -26.8141 -2.63398
8.61015 -20.5114 0.69685
-15.6184 21.5794 -1.27633
-21.0598 -11.5948 -1.70986
-32.6909 -9.22739 -0.653433
-20.8011 -14.2975 -0.42582
-1.14168 -32.5718 -3.13693
25.2492 -3.26441 -0.428348
-20.6122 21.939 -1.14947
-7.56389 -2.41482 -1.93924
6.02137 -17.0941 -0.589814
-8.61834 -23.9765 -2.41775
2.72919 18.0854 0.497158
-16.313 -14.8206 -1.92698
-7.55814 5.63182 -1.72103
-9.02625 19.0871 -1.46237
-2.94134 45.9854 -1.26116
1.94032 -8.03677 -2.44448
-19.1005 -14.8682 -1.85208
9.79724 -2.18752 -2.44233
18.8668 33.4489 -0.088959
25.5512 19.8768 -0.0428723
12.6143 -23.3445 -1.89297
1.5747 -29.3641 -2.81256
-33.7505 5.19955 -0.0766543
-12.1797 18.0376 -1.39489
-16.9558 -13.4084 -1.88633
22.8915 -24.9402 -1.64341
36.5603 -27.4701 1.46846
-8.01649 -5.16186 -2.02607
22.8404 -27.3544 -1.12466
-20.8628 44.5089 0.278947
11.8359 -39.4861 -1.0805
5.23624 -11.6516 -0.199122
-0.645278 -21.5342 -2.81067
-15.0208 0.239233 -1.71586
-5.67786 34.2425 -1.54633
-16.1607 1.73323 -1.66497
-9.86102 27.7509 -1.27946
17.7767 39.87 -0.889003
-19.1047 -29.4394 -2.1733
24.3895 -4.91809 -1.89194
7.04712 33.582 0.314965
1.7824 18.8791 -1.39874
40.8297 -12.8102 -1.39844
-12.3396 28.0584 -1.34209
-21.0464 6.75572 -1.42615
38.1776 -19.419 -2.689
-2.28668 6.42167 -2.14239
23.8745 10.1244 -0.935994
20.4641 -6.77654 -2.5347
-7.64146 9.39942 -1.66266
-45.9471 1.2504 -0.471457
26.0339 -23.5082 -2.95925
-15.6318 18.9284 -1.30256
-4.49754 -1.20495 -2.13049
-14.1003 16.4732 -1.39046
-12.8288 -9.15026 -1.91293
19.9156 36.9141 -1.13074
6.19896 28.3829 -0.523148
20.413 34.014 0.329419
19.0548 1.49637 -2.45044
-5.50566 -29.8877 -2.71973
6.79606 -19.7739 0.0574878
-35.282 26.7652 -0.956282
16.935 32.7257 -1.42035
-0.883298 27.0928 -1.63562
4.59099 -21.8675 0.839878
-14.4005 -4.01898 -1.79721
-22.3628 8.17299 -1.42493
-23.7114 -39.6852 -2.32074
24.2608 2.69565 -2.13833
-6.15346 31.7832 -1.5967
26.3689 -11.7703 0.676717
-1.80252 -23.3534 -2.78854
-27.4609 -16.9881 -0.249834
-16.7611 -10.1467 -1.82258
3.80387 -16.36 -2.68475
2.81625 20.7767 -0.462509
-7.73254 0.24269 -1.8595
-14.3801 -6.68061 -1.83415
-39.9869 11.8981 -1.15138
-25.9842 1.57951 -1.39351
-16.0081 39.5313 -1.20658
-25.3583 22.0431 -1.09707
-5.91174 14.8082 -1.69448
8.28122 -4.02709 -2.44302
44.0835 -2.24985 -2.77921
9.74644 15.2114 -0.692661
0.312467 29.8411 -1.62338
14.7327 -5.45288 -2.64699
-3.66731 6.32105 -2.12888
8.38141 -43.956 -1.1904
5.47268 9.64565 -0.472047
-7.74172 21.5323 -1.47463
-28.0775 15.8387 -1.24495
10.5932 14.0253 -0.866566
-2.69845 -12.3953 -2.46465
-14.0887 5.68759 -1.63247
-23.1744 -9.14714 -1.63529
-0.921713 22.5746 -1.82326
6.48965 -15.3206 0.675231
-2.64735 -30.2277 -2.90896
-19.8726 4.12914 -1.51707
-5.42274 42.9648 -1.23211
46.4586 5.17182 -2.95864
22.8825 -1.23347 -1.99557
-0.66519 15.1411 -1.90568
-8.6052 -1.59804 -1.9079
8.18338 -0.611935 -1.88341
-13.6567 -19.0413 -2.21113
-28.4023 -10.1867 -1.13341
1.68872 -6.17823 -2.44702
38.015 -30.9282 -1.33033
21.8335 -14.2969 -1.85625
20.096 -19.5058 -3.00371
16.9051 -12.3686 -2.83939
22.1343 -15.4039 -2.88383
-13.3574 -40.7346 -2.68989
-0.717627 -7.13164 -2.4419
-36.3097 24.2994 -0.939102
25.5021 0.0459332 -0.429922
-5.59815 19.3895 -1.71918
-20.19 12.5532 -1.42135
6.67076 -24.7253 -2.42489
25.9971 18.6809 -0.426536
-14.7745 -32.9349 -2.43873
-17.1551 -16.169 -1.93707
-2.42076 -36.0849 -0.284304
1.59525 4.75974 -2.14193
-4.95911 12.4762 -1.8536
9.93916 -18.7613 -1.59093
15.8016 -18.2872 -3.00663
9.06395 -47.4209 -3.04881
24.2504 -12.7566 -2.60024
-33.8344 11.797 -1.17817
-42.0221 10.1543 -1.19919
8.96469 -25.3406 -1.61392
-18.0019 30.9375 -1.18731
-7.89286 2.08807 -1.81558
-6.14947 0.202657 -1.95642
19.3668 -2.03992 -2.26979
-30.3828 -27.1152 -1.81125
-10.3279 48.008 -0.833576
-2.21577 12.98 -1.9881
19.8223 36.5272 1.08666
3.75372 3.26671 0.107385
-19.5154 -22.9663 -2.00946
1.03882 -42.7187 -3.39164
2.54165 22.4678 -1.03875
29.5449 4.09861 -2.15128
6.9582 -12.4694 0.523466
10.3885 -14.9874 -1.55438
-33.3881 -30.4778 -1.78258
-20.3402 -9.26781 -1.69621
4.63262 -11.7793 -2.22247
17.2133 17.0213 -2.12067
-17.2448 7.50762 -1.49825
-2.97772 11.3164 -2.02159
-9.84007 36.2125 -1.48807
24.3708 15.9711 0.298373
25.7973 -8.12095 -2.07456
11.2328 -46.661 -3.0293
10.4959 -41.2773 -2.66717
20.1558 -0.765129 -1.86007
25.2908 2.16898 -0.292094
0.951319 -11.3799 -2.55619
-27.6355 -21.4373 1.17354
3.02229 26.1885 0.462814
21.4701 -2.45342 -0.864453
10.4692 -0.535638 -1.13036
-25.5188 -16.2329 1.04036
42.9785 8.73199 -2.76383
25.1506 6.98199 0.761488
-32.278 -14.0003 -1.35317
-33.4894 5.9156 -1.09881
10.4081 -15.8379 -2.7918
27.7933 9.07259 1.00102
2.56592 5.46577 -0.491927
-33.0402 -0.799091 -1.26784
-19.7553 17.912 -1.27922
7.8321 2.39076 -1.95807
-25.2664 -15.8781 -1.61937
-9.08226 -25.999 -2.44891
-1.96471 -20.5821 -2.69128
24.036 -14.0334 -2.6447
-38.1285 22.6756 -0.955398
8.57852 -22.2618 -2.53717
23.8773 0.968494 0.716763
7.35538 -20.3701 -1.75823
-11.336 13.4191 -1.47475
-35.4413 3.79987 -1.16021
13.117 -3.45676 -2.59302
-6.26114 -4.1879 -2.02624
-4.76791 -15.8642 -2.34371
-22.347 -13.3189 -0.779908
-23.1705 23.4071 -1.07149
-5.64769 -21.3512 -2.48754
16.0911 4.30443 -2.40975
-22.3903 -7.28902 -1.67111
19.1129 -4.62607 -2.64817
11.0374 -23.534 -1.85105
8.72585 6.58027 -1.1852
9.10566 -39.2368 -1.05152
-27.7458 3.4002 -1.34594
-2.30937 -45.0903 -2.84155
0.841152 -19.3376 -2.75788
-33.781 14.381 -1.21405
-5.92614 -32.3346 -2.76625
23.258 -28.3474 -1.79648
21.0015 -27.1431 -2.30444
23.5194 12.4773 -0.797976
13.5067 -5.74738 -2.67362
37.6568 -12.9394 -1.05001
-23.8771 -37.0923 -2.20669
2.49139 11.5198 -1.00686
-45.3909 -0.973767 -0.460779
19.7533 10.5204 -1.15717
-34.5954 17.4243 -1.06524
18.2074 36.7902 0.336195
21.7963 6.09753 -1.32813
36.8845 -16.6243 -1.7915
6.93861 -6.1544 -2.4788
36.2821 -10.7561 -2.98394
29.0449 5.36517 0.496655
-36.3258 -1.92807 -0.96762
-15.8388 44.6423 -1.04771
-17.6 45.7355 -0.833638
7.68964 -17.9876 -0.277212
20.5533 -2.85612 0.653191
-10.8792 40.0731 -1.16724
-10.7783 33.3081 -1.56438
6.30325 -18.5445 -2.40871
-17.6813 16.6433 -1.28706
-18.5028 39.3781 -1.23584
-28.7764 -34.192 -2.00238
3.06558 3.44738 -0.927782
23.9532 -3.37009 -1.8352
20.2954 4.10091 -1.66361
-13.2144 7.81555 -1.6465
25.8623 7.49847 -1.12825
-29.0349 -4.32464 -1.42044
17.4922 36.964 -1.09625
38.6922 -3.04066 -2.63924
-0.970027 19.1728 -1.73547
40.0598 -1.175 -2.96068
9.50441 -28.7197 -2.70389
-6.09054 -44.3689 -3.06718
-26.5348 27.8672 -1.06262
10.38 4.18869 -2.33566
22.8457 -4.67014 -2.03481
-10.5947 -11.2894 -2.07092
-17.7271 21.9533 -1.21744
3.75423 -22.1722 -1.44651
-10.2008 -3.84767 -1.90147
-17.9691 11.4349 -1.48719
-7.75807 24.6165 -1.37737
-35.3263 6.5896 0.943862
15.9321 1.06956 -2.51655
-7.82774 -6.40397 -2.05359
-17.3287 9.28518 -1.45971
8.29579 24.0763 -0.918756
42.1748 -11.5792 -1.43414
-16.9759 12.7557 -1.48077
22.0944 18.4073 -2.06919
-47.2582 13.7201 -1.0648
-10.836 -13.3079 -2.09726
-20.8125 -8.08623 -1.6941
39.5985 -12.8991 -1.35544
-19.0884 23.9126 -1.17192
-18.3448 25.8471 -1.22447
-26.2085 17.5608 -1.21439
39.7522 -8.46955 -3.22031
14.4237 -13.0333 -2.86268
-24.7058 13.3702 -1.35963
27.5285 -11.3874 0.507674
-11.9019 46.7793 -0.81631
36.9766 -16.8197 1.32486
-21.418 25.2137 -1.0775
38.6633 -26.8461 0.684089
-32.5136 -11.7089 -0.481113
-0.597132 -24.2821 -2.89749
-12.2761 12.0968 -1.55334
7.45403 6.5255 -1.85328
-22.2599 3.6279 -1.46081
-18.8687 9.01751 -1.45791
9.97495 -29.921 -0.779992
20.731 -17.2963 -2.07163
8.2053 -11.5133 -2.2358
3.47469 6.33116 -0.79993
-5.88651 -18.781 -2.42755
-17.5549 2.16189 -1.61678
-8.69693 31.5929 -1.6205
-25.6025 40.238 -0.234806
7.19851 -30.6404 -2.63738
15.3124 -16.6271 -2.94555
-31.4665 -23.3195 -0.343442
-13.5086 15.4046 -1.4173
8.91986 -15.8452 -2.01002
22.896 -23.7995 -2.96402
13.9492 -37.7407 -2.73225
-7.2724 4.24575 -1.76882
3.96101 13.2283 -1.12562
-21.801 17.9238 -1.21824
5.31583 -22.8772 0.730468
-0.566296 13.3536 -2.01166
-3.64624 37.6773 -1.49954
18.5093 40.8814 0.917893
43.9967 -8.39616 -3.32936
19.9188 21.5365 -1.5807
20.4597 -15.4033 -2.89781
-1.63333 8.26503 -2.0801
25.1524 -10.6644 -2.09784
18.344 -14.5431 -2.90257
10.5309 -4.56466 -2.52214
15.8774 39.4901 -1.14931
-11.675 9.01361 -1.65583
-11.3308 44.9812 1.10253
23.2719 -7.20542 -2.13385
6.9465 -17.1761 0.61607
5.18415 -17.178 -2.31111
-27.0191 40.0515 -1.06806
-18.2221 6.31517 -1.54332
-9.7943 4.42022 -1.75088
25.772 5.51143 0.923942
-30.07 20.9181 -0.998446
-8.72171 26.4521 -1.34287
-19.9656 -7.11242 -1.72547
26.6312 -37.1826 -3.3982
-25.7216 -20.7367 -1.80836
-11.5748 -7.26749 -1.90296
-29.1635 -17.3658 -0.273742
-2.22438 29.8158 -1.62878
7.01981 -11.2171 -0.69817
20.7434 -11.1996 -2.7919
-1.07749 -9.9768 -2.50751
-8.348 33.86 -1.55625
-7.96956 42.6842 -1.22936
15.7608 -14.3501 -2.89607
2.96213 -5.74832 -2.44659
-2.04298 -26.3247 -2.83109
24.2166 -2.21637 -1.57492
-34.6978 4.47961 0.110569
-32.6684 -10.1948 0.12943
-1.27282 32.0278 -1.5753
-28.3851 -13.8847 0.883424
-17.9403 -20.001 -2.07143
16.7446 40.7188 0.634041
-1.26331 -13.2375 -2.57845
-9.5712 46.949 -1.06006
-15.8375 14.6199 -1.38241
2.85612 -10.099 -2.49465
-15.1912 29.6384 -1.29731
-4.0293 -18.7421 -2.48795
-16.9303 -6.51711 -1.67066
-10.0286 -46.8957 -3.02832
-31.6127 -21.6005 -1.69735
-14.3802 -16.1917 -2.03025
3.74776 -47.1911 -3.52283
-20.1214 -1.96461 -1.63522
18.6486 12.2061 -1.30731
-20.3056 -19.4816 -2.02792
20.3653 29.7899 0.77876
-11.6421 -17.2263 -2.19664
-25.642 -14.6186 -1.26535
-15.4274 -6.03492 -1.8218
-19.6139 44.3781 0.0223161
9.2423 -19.5853 0.289795
38.3154 -12.9206 0.132375
-18.0312 41.3876 -0.211365
4.10345 -13.7707 -2.28392
-3.56644 -13.991 -2.45548
-19.4795 -13.4902 -1.80929
23.3318 22.6653 -0.0444691
5.2346 12.8341 -0.484187
24.0297 2.51362 0.865387
26.0744 1.84205 0.625005
4.39622 22.1482 -1.45367
-21.9306 -0.0828156 -1.54204
-12.4899 -11.6849 -1.99285
25.908 -24.6882 -3.02317
18.7649 0.293411 -2.40309
9.48825 -22.9498 0.168296
-15.8953 -0.564132 -1.73358
10.3034 -13.835 -2.74879
3.51937 15.4281 0.0844757
-4.62211 14.8663 -1.81963
-35.3137 -3.06539 -0.0784182
9.61643 -42.5806 -2.73854
4.9268 17.1445 -1.30363
18.8424 21.4156 -1.05287
-2.87488 -24.1237 -2.75267
-22.0209 13.245 -1.37642
7.0995 -11.0943 -2.2191
-10.6907 6.47531 -1.67631
-28.1943 -10.9284 -0.0271576
44.1834 -0.496873 -3.03356
3.64886 -24.7987 0.629997
-29.4974 -31.9492 -1.94445
5.73833 -19.4591 -0.553128
19.751 4.90424 -2.37816
-16.4951 25.9753 -1.18184
-9.97713 8.33586 -1.65744
22.6538 -14.2747 -2.86172
9.95597 0.955577 -1.36701
11.407 -16.1518 -1.70101
-28.1258 -22.6223 0.989093
6.79201 -23.0938 -1.70018
18.2419 -5.49322 -2.68796
-12.1189 -5.50312 -1.91632
21.698 -16.5665 -1.79217
-23.3774 -2.68271 -1.53431
11.1165 -2.46815 -2.49489
-26.369 -16.2033 0.14576
10.7078 7.52596 -2.26931
-29.7118 -29.4445 -1.86436
22.8994 31.3764 -0.0938514
-5.05549 45.6826 -1.32127
42.1928 -11.5041 -2.75037
18.0485 16.1397 -2.12113
2.40321 4.42128 -1.03517
12.9117 -9.11036 -2.50026
-9.0117 -16.9338 -2.25785
26.6121 3.30431 -2.05634
-5.50087 8.57914 -1.84381
-0.324171 -5.01238 -2.3738
-25.4761 -23.0604 -1.88745
3.02753 9.7586 -0.845971
-37.6736 -0.534386 1.21356
0.23153 7.55548 -2.08907
5.49467 11.2817 -0.486161
19.406 -2.79927 0.401445
44.3621 -11.4596 -1.23997
37.1519 -20.1637 -1.64615
-24.9954 -13.7057 -1.73918
7.81642 -47.3822 -2.69572
-45.7161 1.55857 0.628313
-9.60408 15.1692 -1.40843
-6.76427 -39.2462 -2.93737
-3.99597 15.8435 -1.92168
-18.3315 -8.4092 -1.75009
27.0514 0.22776 -0.324465
21.1869 -9.68723 -2.75607
11.2877 -27.6944 -2.31854
2.34364 15.829 -0.771135
6.17666 -10.4258 -0.463759
6.98224 28.216 0.822569
-15.1612 11.6102 -1.52095
1.10348 23.5361 -1.66103
19.6099 -11.4442 -2.80789
5.85542 -7.72492 -2.50366
25.0269 4.08752 -0.15175
-12.0209 -31.6613 -2.47197
25.9089 10.1917 0.649208
39.3175 -11.7243 -0.59256
-10.9089 10.555 -1.61673
-8.33157 -12.1614 -2.1489
-1.4609 21.3692 -1.83583
9.09716 33.7381 0.13086
36.9121 -16.0504 0.133868
26.3514 -22.8275 -1.9088
8.53078 -26.3067 -2.63244
-42.6026 -22.905 0.365562
-30.7184 38.6549 -1.09574
-36.585 -21.6406 -0.394945
-3.19157 8.72812 -2.04947
-28.873 -12.325 -0.985558
-3.68568 20.96 -1.82448
19.7498 -14.2801 -2.89428
-19.6115 8.06554 -1.47988
2.15054 23.7944 -1.25157
-10.978 46.5331 1.41112
-21.729 16.0715 -1.29979
-23.2804 -12.4326 -1.74303
-10.2368 41.7552 -1.21606
-14.0448 -13.4125 -1.80517
-26.8971 25.5067 -1.01509
5.95025 -0.685791 -1.69111
1.36012 -47.41 -3.53045
-9.52575 -15.298 -2.21178
25.176 -14.5988 -2.7741
2.54992 -21.4148 -1.87695
-4.41903 -23.7397 -2.57518
44.3342 -11.4973 -2.88992
-12.4581 -43.0064 -2.81684
-16.0264 46.0842 -0.828726
-20.7478 -13.3569 -1.61653
11.1094 -25.3235 -1.66793
-7.75337 8.15967 -1.69929
-22.6061 1.06167 -1.46725
3.5042 23.4461 -0.262857
-22.3941 20.1474 -1.1503
-26.7992 20.4438 -1.10068
-17.6695 -17.9969 -2.08507
2.16108 -14.6244 -2.1516
21.7602 -23.7291 -3.09073
4.84658 1.53535 -0.528871
-37.233 1.18489 0.306667
22.678 27.8706 -0.938572
-12.5783 -7.89542 -1.88983
19.1954 41.8358 -0.147548
-7.93834 16.8278 -1.46447
6.58349 10.7656 0.55004
9.55101 3.83478 -1.57344
-35.5678 3.85516 0.753963
37.8094 -12.8722 -2.94631
-38.0112 -0.77107 0.108321
8.21069 -2.88867 -2.4232
40.6855 -12.7404 0.127938
-6.85429 12.8742 -1.61577
5.11439 -24.9973 0.309976
26.4731 -40.9132 -1.3209
-4.64545 29.7712 -1.64501
-9.41621 14.05 -1.51263
-4.92775 9.89102 -1.90596
-5.79658 18.2317 -1.7359
14.9144 -15.512 -2.9268
-14.4885 21.9698 -1.25779
10.6584 5.16524 -1.36587
-15.1785 6.07997 -1.47137
-9.81844 -19.109 -2.27554
24.8717 13.0092 -0.348286
-14.9613 13.8656 -1.4118
-18.8178 -7.29725 -1.75102
6.26568 -12.8477 -2.26448
46.6942 1.36558 -2.95604
9.62932 -21.8503 0.603997
4.88758 2.92289 -0.664192
45.7192 4.07614 -2.90137
25.5265 -4.76895 -0.302338
3.46915 12.1473 -1.32956
6.98185 8.32373 -0.654317
-0.101773 47.1556 -1.03427
3.82294 -7.68088 -2.47392
11.9353 -15.0161 -2.82588
13.7886 -15.0892 -2.90879
-5.49427 6.03692 -1.88486
1.04219 8.94766 -2.0298
-30.1521 -21.2709 1.22387
37.7189 -27.39 0.380134
2.37117 46.7466 -1.02309
-19.4561 28.8413 -1.1479
23.1685 -0.121213 -2.01966
-22.239 40.3232 -1.01327
0.422577 25.4137 -1.66175
-11.5337 -20.8132 -2.24767
-4.0882 11.7485 -1.99901
-6.19899 -13.965 -2.23513
-12.8082 1.28274 -1.75732
9.26263 -18.0756 -0.072508
-7.96259 11.8168 -1.57949
24.6311 26.6272 -0.704316
27.0983 -0.0580492 -2.08038
-7.60877 -30.6749 -2.6531
10.6738 -7.75224 -2.53171
-33.3183 -32.87 -1.84914
25.1919 -38.8924 -2.59832
21.6413 -1.70574 -1.87986
-27.1181 -15.767 -1.3569
-42.2439 -23.6182 -0.479533
-22.4521 -17.68 -1.90114
25.3851 -26.4376 -0.295688
-14.4172 19.4016 -1.27851
-8.65242 -20.3071 -2.34251
-44.505 16.5755 -1.02276
-33.599 4.93396 1.10669
-9.17286 9.70472 -1.62662
-40.86 19.2331 -0.964522
26.3924 10.1352 -0.502574
-7.79097 -42.6459 -2.96367
-23.7256 16.6363 -1.25659
8.68703 -37.8382 -3.29499
-7.07575 20.2633 -1.48861
8.10644 -19.2137 -0.448221
2.15034 -18.2367 -1.69049
-1.7658 24.7951 -1.75767
26.9075 0.38737 0.941066
-46.3024 -1.8544 1.44531
-8.3496 -37.3766 -2.81829
-16.5663 40.7994 -0.958738
