ply
format ascii 1.0
element vertex 1698
property float x
property float y
property float z
end_header
-0.44073 -0.229755 0.38392
-0.353026 -0.395846 0.237635
-0.142999 -0.378065 0.230783
-0.156332 -0.367399 0.230783
-0.118999 0.480595 0.230783
-0.340146 -0.200172 0.38392
0.154527 -0.078302 0.008614
-0.054406 0.064191 -0.127394
-0.712897 0.021704 0.38392
0.543228 -0.012512 -0.198995
0.4272 0.072302 -0.322841
-0.293638 -0.137689 0.337499
-0.492049 -0.408169 0.24363
-0.129883 -0.266 0.314203
0.670391 -0.350388 0.149761
-0.596328 -0.460731 0.230783
0.107376 0.109982 -0.232569
0.503664 0.442224 0.24363
-0.397602 -0.499046 0.179908
0.475997 -0.076339 -0.089538
0.076257 0.500117 0.299643
-0.332729 0.282273 -0.166278
-0.44535 0.251582 -0.09382
-0.254972 0.042976 -0.057677
-0.15816 -0.467382 0.161751
-0.527034 -0.416243 0.24363
0.266366 -0.377128 -0.130991
0.177376 -0.412724 -0.130991
0.066643 0.040379 -0.127394
-0.185126 0.357058 -0.085255
0.386169 0.528851 0.179908
0.737641 0.405726 0.204917
-0.240552 -0.366737 0.250482
0.297834 -0.417755 -0.148977
0.038872 0.099413 -0.20499
-0.220005 0.329372 -0.198995
-0.460931 0.463242 -0.074121
0.143367 -0.03113 -0.053395
0.201759 0.559728 0.185904
-0.14995 0.008274 -0.018964
-0.425464 -0.477899 0.185904
-0.298987 -0.459831 0.185904
0.756708 0.415183 0.185904
0.400508 0.508104 0.185904
-0.144117 -0.434019 0.185904
-0.56594 0.261086 -0.065556
0.520921 -0.25695 0.052465
-0.64067 -0.39533 0.27806
-0.119201 0.159936 -0.232569
-0.198108 0.313571 -0.169703
-0.044526 0.173537 -0.274707
0.286476 0.528911 0.198922
0.691965 -0.483248 0.073192
0.425669 0.518693 0.173913
0.32753 -0.20841 -0.074121
0.137715 -0.273072 -0.074121
0.4082 0.094282 -0.337572
0.313189 0.004 -0.202421
0.092653 0.028906 -0.119686
-0.060394 -0.129539 0.004332
-0.275328 0.187781 -0.053395
-0.720095 -0.27419 0.329791
0.001 0.571261 0.230783
0.044123 -0.088699 0.037905
-0.221875 0.359825 -0.173129
0.039038 0.215426 -0.335003
0.264513 -0.052384 -0.053395
0.107097 0.050037 -0.155829
-0.086171 0.017753 -0.053395
0.687435 -0.463735 0.078331
-0.349655 -0.163833 0.408929
0.30325 -0.037265 -0.089538
-0.383911 -0.344619 0.285768
-0.190743 -0.083211 0.018035
-0.316408 -0.053735 0.29262
-0.156146 -0.329068 0.264357
-0.762771 -0.325739 0.345208
-0.072656 -0.150617 0.013753
0.522177 -0.021559 -0.176555
0.060605 0.015866 -0.097417
-0.056889 0.503423 0.285768
-0.002025 -0.053449 -0.000122
0.370671 -0.014204 -0.189402
-0.073189 0.144356 -0.229999
0.495165 -0.155124 0.013753
0.04605 0.163707 -0.288411
-0.520995 -0.190887 0.408929
-0.18631 -0.501127 0.149761
0.245574 0.53136 0.204917
0.060176 -0.112676 0.052465
0.39654 -0.107556 -0.023247
-0.486176 -0.340848 0.307351
-0.000966 -0.077173 -0.018964
-0.212903 0.197644 -0.253124
0.472655 -0.094126 -0.134417
0.062416 -0.163866 0.143765
-0.532424 -0.243482 0.376212
-0.582466 -0.258201 0.376212
-0.455888 -0.069807 0.376212
0.015096 0.462995 0.376212
-0.656057 -0.252314 0.376212
-0.679606 -0.137511 0.376212
-0.473551 -0.075694 0.376212
-0.500043 -0.090413 0.376212
-0.729649 0.201009 0.376212
-0.547912 0.008405 0.22376
-0.391369 -0.416118 0.22376
0.195003 0.528446 0.22376
-0.478462 -0.169823 0.443359
0.669971 0.42301 0.217764
0.242261 -0.022842 -0.085255
0.710149 -0.331426 0.143765
0.746891 0.435134 0.161751
-0.753661 0.27793 0.230783
0.642624 0.466361 0.143765
0.094195 -0.071904 0.018035
-0.462935 0.394996 -0.123968
-0.473663 -0.428731 0.230783
-0.356638 0.033552 -0.074121
0.494516 -0.06638 -0.138699
-0.557964 -0.291124 0.345208
-0.586241 -0.152445 0.078331
-0.460267 0.264835 -0.105125
0.484136 -0.467308 0.088608
-0.171236 -0.496102 0.149761
0.047665 -0.238085 -0.049112
-0.055896 -0.336772 -0.077547
-0.157502 -0.403044 0.204917
0.439545 -0.081371 -0.069839
-0.728091 -0.552235 0.204917
0.023282 0.149515 -0.266999
-0.570044 0.216934 0.004332
0.678885 0.478559 0.047327
-0.474556 -0.31267 0.321911
0.397382 0.494717 0.204917
0.268545 -0.129645 0.032595
0.237971 0.029251 -0.210985
0.597712 -0.478014 0.052465
0.541729 0.400882 0.285768
0.389872 -0.336562 -0.134417
0.284025 -0.137362 0.042188
-0.753695 0.147739 0.27806
0.602028 -0.329442 0.179908
0.15696 0.525639 0.250482
-0.163756 -0.439942 0.179908
-0.328219 -0.486197 0.179908
0.512086 -0.35514 0.179908
0.128637 -0.390903 -0.119686
0.221705 0.562258 0.179908
0.57119 0.467178 0.179908
0.412982 0.03117 -0.263573
-0.754117 -0.296893 0.345208
-0.257768 0.096622 -0.069839
-0.557027 -0.079424 0.401221
-0.556636 0.030482 0.24363
-0.120735 -0.37632 0.22376
-0.426069 0.383117 -0.138699
-0.744925 -0.174911 0.307351
0.214893 -0.248041 -0.074121
0.520921 -0.268585 0.052465
0.496118 -0.4908 0.068053
0.344692 0.016017 -0.220407
0.291767 -0.081363 -0.023247
-0.162729 0.449805 -0.031811
-0.437634 -0.301309 0.321911
0.624833 0.424968 0.22376
0.310902 0.440385 0.314203
0.462524 0.033858 -0.223833
-0.296784 -0.178136 0.401221
-0.503081 -0.162971 0.434794
-0.064162 0.541795 0.24363
0.279002 0.10401 -0.315989
0.476616 -0.485614 0.073192
-0.664888 -0.102187 0.376212
0.62807 0.527237 0.073192
0.604405 -0.469048 0.073192
-0.733016 -0.221783 0.321911
0.222332 0.515262 0.230783
0.378837 -0.031081 -0.105125
-0.743224 0.200668 0.264357
0.54186 0.466368 0.198922
-0.226609 -0.160628 0.161751
0.33811 0.197758 -0.37971
0.531651 -0.367165 0.127321
-0.721656 -0.196221 0.321911
-0.420296 -0.297032 0.329791
0.062877 0.194964 -0.340141
-0.057843 -0.156119 0.023174
-0.029059 0.468881 0.376212
0.367675 0.119084 -0.313419
0.353245 -0.133407 0.023174
0.510295 -0.182713 0.018035
-0.212394 0.00458 0.004332
0.553669 -0.040575 -0.166278
-0.158326 0.47687 -0.009543
-0.750877 0.041332 0.360795
0.233692 -0.340943 -0.112834
0.59624 -0.092782 -0.123968
0.472302 -0.166884 -0.217837
-0.319179 0.235601 -0.108551
0.068845 0.004107 -0.081829
-0.29233 -0.052384 -0.053395
-0.656688 -0.111422 0.38392
0.308044 -0.39418 -0.138699
0.139237 0.0298 -0.138699
0.082782 -0.393259 -0.112834
0.520034 -0.211633 -0.138699
0.51666 0.482293 0.185904
-0.4616 -0.477899 0.185904
-0.709074 -0.520131 0.217764
0.510091 -0.062024 -0.152403
-0.3506 0.099322 -0.027529
-0.122584 0.462638 0.217764
-0.444757 0.404147 -0.11626
0.215618 0.457031 0.321911
-0.737375 0.242597 0.314203
0.436666 -0.09064 -0.053395
0.086219 0.557632 0.22376
-0.126929 0.513576 0.173913
-0.715004 -0.552235 0.204917
0.70533 0.411968 0.191899
-0.708118 -0.025674 0.368504
-0.406433 -0.081325 0.368504
-0.377143 -0.227773 0.368504
-0.711047 -0.063751 0.368504
0.394022 -0.0601 -0.081829
-0.047142 -0.350067 -0.081829
-0.453297 -0.084253 0.368504
-0.432794 -0.239489 0.368504
-0.55874 -0.26585 0.368504
-0.693473 -0.063751 0.368504
-0.377143 -0.242418 0.368504
0.339196 0.419632 0.329791
-0.137124 -0.017728 0.008614
0.499117 0.450938 0.237635
0.380188 -0.079822 -0.057677
0.244419 -0.079364 -0.018964
-0.734419 0.145782 0.408929
-0.237581 0.395968 -0.145551
-0.390738 0.390968 -0.138699
0.086656 -0.402898 -0.119686
-0.331524 0.394689 -0.134417
-0.095775 0.558126 0.237635
0.358348 -0.101273 -0.018964
-0.742112 -0.138349 0.307351
0.231465 -0.216862 -0.061103
0.2779 -0.206309 -0.061103
0.443292 -0.123599 -0.013826
0.275951 -0.05887 -0.049112
0.01422 0.511024 0.314203
0.685465 -0.335314 0.149761
-0.774676 -0.330762 0.285768
0.582366 -0.445745 0.088608
-0.470201 0.096804 0.149761
0.60442 0.456481 0.185904
-0.577193 -0.033905 0.173913
0.765926 0.447059 0.173913
0.71476 -0.299971 0.173913
0.461486 0.50846 0.173913
-0.359736 -0.49952 0.173913
-0.457535 -0.419964 0.237635
-0.123476 0.473778 0.204917
0.615998 -0.095462 -0.112834
0.175202 -0.089779 0.013753
0.22841 -0.152749 0.057604
-0.172448 0.350155 -0.005261
0.044597 -0.055867 0.008614
0.517678 -0.43137 0.088608
-0.297252 -0.02287 -0.089538
0.261465 -0.246508 -0.081829
-0.37456 0.255732 -0.11626
-0.758048 -0.153394 0.285768
-0.526684 0.164359 0.068053
-0.17234 0.056225 -0.077547
-0.451835 -0.304149 0.321911
-0.732592 0.186291 0.376212
0.573889 -0.474303 0.068053
-0.50783 0.154932 0.068053
0.343339 -0.201614 -0.077547
0.022116 -0.371587 -0.105125
0.363425 -0.078072 -0.049112
-0.138296 -0.422264 0.198922
-0.450001 -0.116905 0.376212
-0.113383 0.092204 -0.142125
0.455913 -0.185597 -0.142125
-0.3501 0.270231 -0.142125
-0.604833 -0.398087 0.27806
0.037858 0.012258 -0.085255
-0.769031 -0.275624 0.271208
-0.017268 0.008823 -0.065556
0.328602 -0.104338 -0.005261
-0.207575 -0.261546 0.321911
0.327861 0.51015 0.210913
0.506051 -0.378652 0.161751
-0.542638 -0.454085 0.217764
0.45177 0.114176 -0.332433
-0.755695 -0.327104 0.337499
0.013082 -0.342865 -0.085255
-0.421078 -0.239489 0.368504
0.530419 -0.12719 -0.179125
-0.646458 -0.536927 0.198922
-0.735857 -0.076931 0.321911
-0.766362 -0.109052 0.285768
0.391964 -0.039159 -0.108551
0.173185 0.512118 0.250482
0.014921 -0.020318 -0.031811
0.224593 -0.356919 -0.119686
-0.439044 -0.507194 0.173913
-0.119891 0.080067 -0.127394
0.546897 0.524119 0.11533
0.543487 0.511745 0.132631
-0.20786 -0.529725 0.132631
0.506291 0.521663 0.132631
-0.432339 -0.119849 0.376212
0.044533 0.45122 0.376212
0.213117 -0.297453 -0.1017
-0.178104 -0.512368 0.132631
0.158866 0.027837 -0.138699
0.692574 -0.448142 0.088608
0.062531 -0.092526 0.023174
-0.062518 0.080466 -0.142125
0.753134 0.480318 0.173913
-0.404967 -0.319641 0.299643
0.270672 0.125395 -0.29629
0.428727 0.040234 -0.279846
0.527649 0.465461 0.210913
-0.498776 0.272942 -0.105125
-0.332443 0.011047 -0.11626
-0.744191 0.212428 0.285768
-0.049695 0.456383 0.337499
0.050002 -0.274972 -0.065556
-0.513385 0.456589 -0.065556
0.213973 -0.235031 -0.065556
-0.417128 0.240053 -0.074121
0.148805 -0.249747 -0.065556
0.117272 -0.253951 -0.065556
-0.7618 -0.295848 0.307351
0.048416 0.023816 -0.1017
0.193792 0.544325 0.210913
0.320492 0.531335 0.185904
-0.176784 0.087642 -0.112834
-0.218993 -0.070448 0.042188
-0.248739 -0.446177 0.191899
-0.427391 -0.255925 0.360795
-0.273907 -0.018712 -0.085255
-0.645963 -0.098554 0.360795
-0.456534 -0.258839 0.360795
-0.73231 -0.381193 0.299643
-0.493821 -0.151394 0.443359
-0.459277 -0.496476 0.179908
-0.598739 -0.531732 0.191899
-0.067277 -0.022365 -0.013826
-0.7671 -0.287108 0.321911
-0.54377 -0.548363 0.167918
0.011309 -0.149908 0.052465
0.115528 0.067055 -0.179125
0.668556 -0.3115 0.167918
-0.711866 0.562088 0.167918
0.186855 -0.419345 -0.134417
-0.128624 0.48568 0.167918
-0.302664 -0.492734 0.161751
0.597243 -0.342063 0.167918
-0.136266 0.422007 0.167918
-0.746299 -0.381193 0.299643
-0.216133 0.122993 -0.145551
0.170867 0.48366 0.29262
-0.541702 -0.505806 0.191899
0.079319 0.092392 -0.202421
-0.054647 -0.317997 -0.069839
0.21249 0.060636 -0.244559
-0.676212 -0.216102 0.321911
0.503648 -0.263551 0.062743
0.635057 -0.465357 0.062743
-0.73922 -0.139353 0.360795
-0.726288 -0.525596 0.210913
-0.468665 -0.45199 0.210913
0.369535 -0.066856 -0.065556
0.251193 -0.386268 -0.127394
0.284742 -0.026983 -0.089538
0.029864 0.555385 0.250482
-0.510948 -0.474384 0.198922
0.203979 -0.299426 -0.09382
0.656043 -0.304962 0.185904
-0.71939 0.190871 0.408929
0.114051 -0.32929 -0.089538
-0.114222 0.051164 -0.089538
0.140786 -0.306669 -0.089538
0.284742 -0.261426 -0.089538
-0.05664 0.036769 -0.089538
0.586392 0.512154 0.110192
0.622383 0.416102 0.237635
-0.149009 0.420234 0.078331
0.376578 -0.021611 -0.182551
-0.304388 -0.511176 0.149761
0.474907 -0.17093 -0.176555
0.632694 0.512154 0.110192
-0.647793 -0.444081 0.237635
-0.168833 -0.284843 0.29262
0.001652 -0.277075 -0.065556
-0.018494 -0.151664 -0.018964
0.188973 -0.275504 -0.081829
-0.586939 -0.040537 0.401221
-0.453096 0.451485 -0.081829
-0.430163 -0.461354 0.198922
-0.033631 -0.367022 -0.09382
-0.159525 0.376256 0.032595
-0.729684 0.104424 0.417494
-0.575869 -0.426228 0.250482
0.550538 -0.157694 -0.176555
0.032417 0.156581 -0.282415
-0.348705 -0.23844 0.360795
-0.280519 -0.434453 0.204917
-0.126094 0.450221 0.204917
-0.481829 0.458889 -0.069839
-0.113007 0.588942 0.204917
-0.023236 -0.309621 -0.069839
-0.157254 0.046365 -0.069839
0.551027 0.487993 0.173913
-0.034681 0.192249 -0.301429
-0.626013 -0.512974 0.204917
-0.665426 -0.162772 0.470081
-0.54541 0.115662 0.138626
-0.349806 0.153573 0.013753
-0.060836 0.502915 0.299643
0.441637 -0.196219 -0.148977
0.522581 -0.381444 0.143765
-0.213487 0.025801 -0.018964
-0.206619 -0.509606 0.138626
-0.098343 -0.072472 -0.027529
0.086877 0.525609 0.264357
-0.199267 0.423369 -0.127394
-0.134487 -0.297506 0.285768
0.036123 0.475856 0.352916
0.191362 -0.221083 -0.061103
-0.700294 -0.292452 0.352916
-0.249426 0.001622 0.161751
-0.576461 -0.054152 0.161751
-0.277312 0.024438 0.161751
0.759567 -0.302597 0.161751
0.717991 0.425508 0.185904
-0.356061 0.087542 -0.036265
-0.178698 0.200222 -0.263573
-0.604617 -0.283755 0.352916
0.655626 -0.327949 0.161751
0.706329 -0.315273 0.161751
0.260141 0.561892 0.161751
-0.500806 0.300427 -0.145551
0.159424 -0.121211 0.042188
0.058792 0.052799 -0.145551
-0.748677 -0.268826 0.314203
-0.740082 0.168371 0.329791
-0.411388 -0.460626 0.204917
0.317207 -0.145738 0.057604
0.265241 0.082847 -0.29098
-0.761419 -0.272907 0.321911
0.276706 0.060496 -0.263573
0.438634 0.042912 -0.288411
-0.121703 0.502708 0.191899
0.651842 -0.425793 0.093747
-0.354012 -0.515887 0.155756
0.155298 0.580377 0.185904
-0.664281 -0.467374 0.24363
-0.500655 0.42774 -0.09382
0.483725 -0.163983 0.032595
0.152095 0.452662 0.352916
-0.768681 -0.316843 0.299643
0.365799 -0.235928 -0.09382
-0.491374 -0.274637 0.368504
0.61185 -0.271797 0.217764
-0.259561 0.126746 -0.049112
0.215355 0.123279 -0.298859
-0.328825 0.060029 -0.081829
0.27405 0.158253 -0.341854
0.157907 -0.050649 -0.031811
-0.261456 -0.344216 0.271208
-0.247698 0.11977 -0.053395
-0.458442 -0.218979 0.392656
-0.451758 0.378921 -0.134417
0.502866 -0.038871 -0.142125
0.651327 -0.247916 -0.053395
-0.101231 0.525594 0.285768
-0.406709 -0.445718 0.198922
0.094613 0.154778 -0.29098
-0.301167 0.426724 -0.119686
-0.592903 -0.547871 0.179908
-0.028465 0.131834 -0.229999
-0.727563 0.21619 0.360795
-0.179338 0.375635 -0.074121
-0.027069 0.021036 -0.074121
-0.381668 0.02938 -0.074121
-0.237501 0.387306 -0.152403
-0.21647 -0.463704 0.173913
0.534694 0.421846 0.264357
0.141488 0.506494 0.264357
0.385511 -0.238804 -0.089538
-0.734371 -0.185677 0.329791
0.567991 -0.452933 0.088608
-0.682941 -0.539532 0.198922
0.708641 0.41946 0.198922
0.521012 0.471579 0.198922
-0.276411 0.005113 0.198922
-0.609974 -0.521291 0.198922
-0.386818 0.234009 -0.081829
-0.576097 -0.526503 0.198922
-0.306498 0.118212 -0.049112
0.1881 -0.383457 -0.123968
-0.692678 -0.15276 0.461516
0.160251 -0.336086 -0.1017
-0.305453 -0.385665 0.250482
-0.695804 -0.42841 0.27806
-0.650469 -0.169823 0.443359
-0.434944 -0.468479 0.204917
0.602999 -0.380944 0.132631
-0.735877 0.234599 0.285768
0.530918 -0.241197 0.042188
0.156988 0.546954 0.210913
-0.318974 -0.377553 0.250482
0.222598 0.146795 -0.313419
0.085703 0.580486 0.191899
0.202343 -0.037478 -0.057677
-0.312707 -0.20727 0.368504
-0.388732 -0.172851 0.408929
-0.533003 0.295845 -0.11626
0.484968 -0.165135 -0.229999
0.240676 0.564634 0.167918
-0.100674 0.056696 -0.097417
-0.309164 0.022909 -0.119686
0.038148 -0.372019 -0.097417
0.415825 -0.255654 -0.097417
-0.550666 -0.230879 0.392656
-0.336888 -0.453954 0.191899
0.132057 -0.325065 -0.097417
0.228007 -0.30465 -0.097417
-0.167409 -0.107093 0.037905
0.043302 -0.151057 0.088608
-0.311109 -0.500744 0.155756
-0.121828 -0.465412 0.155756
-0.341393 -0.503268 0.155756
-0.195016 -0.483079 0.155756
0.288221 -0.156889 0.052465
0.658213 -0.226698 0.052465
0.690816 -0.321559 0.155756
-0.052332 0.573928 0.230783
0.521725 0.496132 0.155756
-0.167256 -0.207991 0.155756
0.605008 -0.351844 0.155756
-0.571054 -0.071709 0.155756
-0.099664 0.216147 -0.315989
-0.465057 -0.525982 0.155756
-0.070324 0.557632 0.22376
0.59239 -0.361939 0.155756
0.181536 0.462711 0.321911
-0.126049 -0.214621 0.185904
-0.40763 0.395587 -0.127394
-0.222738 -0.529725 0.132631
-0.139461 0.230625 -0.305711
0.402981 0.150646 -0.368576
-0.604118 -0.299778 0.345208
-0.307004 -0.256509 0.345208
-0.534888 -0.288239 0.345208
-0.503157 -0.279585 0.345208
-0.416619 -0.115163 0.345208
0.246838 0.427141 0.345208
0.050686 0.484833 0.345208
0.010301 0.487718 0.345208
0.039147 0.484833 0.345208
-0.367581 -0.089202 0.345208
0.269915 0.421372 0.345208
0.14778 -0.351318 -0.105125
0.029814 0.465938 0.376212
0.206454 0.43868 0.345208
-0.255607 -0.352058 0.257333
0.301853 0.0183 -0.210985
-0.694074 -0.4301 0.264357
0.172832 -0.266074 -0.077547
-0.103722 0.04167 -0.077547
-0.263831 0.043749 -0.077547
-0.003913 -0.31182 -0.077547
-0.46404 -0.479596 0.198922
0.228564 0.481252 0.285768
-0.068372 -0.347169 -0.077547
-0.125168 -0.307116 0.27806
-0.634894 -0.274637 0.368504
-0.506721 0.347295 -0.155829
-0.75055 0.0979 0.307351
-0.34458 0.364668 -0.155829
-0.167536 0.183685 -0.253124
-0.537007 -0.482202 0.198922
-0.683152 -0.419177 0.264357
0.172927 0.18768 -0.355558
-0.043974 0.143402 -0.235138
-0.180301 -0.312629 0.27806
-0.115531 0.197924 -0.285841
-0.307605 -0.197213 0.38392
0.025594 -0.123518 0.042188
0.28433 0.089768 -0.301429
-0.706651 -0.048135 0.555386
0.344683 0.0664 -0.288411
0.067742 0.541907 0.257333
-0.167477 0.404833 -0.018964
-0.724539 0.18381 0.401221
0.260782 -0.227183 -0.074121
-0.688643 0.040227 0.401221
-0.771905 0.012889 0.285768
-0.172633 0.372396 -0.036265
-0.275379 0.001121 -0.112834
-0.418043 0.187875 0.004332
-0.138812 0.399086 0.167918
-0.4975 -0.437344 0.22376
-0.482287 0.267818 -0.1017
0.198627 -0.182031 -0.053395
-0.15152 0.491561 0.013753
-0.031285 -0.018062 -0.023247
-0.409168 0.144752 0.062743
-0.450744 0.297109 -0.155829
-0.042082 -0.305433 -0.069839
0.401315 -0.189163 0.032595
-0.101139 0.23149 -0.308281
-0.751502 -0.202809 0.329791
-0.507998 0.072339 0.191899
0.376454 -0.399022 -0.152403
-0.062099 -0.06769 -0.040547
-0.72059 0.56493 0.191899
0.430398 -0.171472 0.037905
-0.621135 -0.501937 0.210913
0.731256 0.417153 0.191899
0.213117 -0.317786 -0.1017
-0.422214 0.419448 -0.108551
-0.579066 -0.144027 0.42623
0.585672 -0.469589 0.068053
-0.194159 0.307395 -0.123968
0.192571 -0.054982 -0.031811
-0.39691 0.23505 -0.077547
-0.680934 -0.23261 0.360795
-0.043363 -0.112311 0.013753
0.495165 -0.224974 0.013753
-0.133875 -0.063901 -0.023247
0.606504 -0.078517 -0.130991
0.437018 0.028883 -0.272138
0.304118 -0.382403 -0.138699
-0.119746 -0.324886 0.257333
-0.318192 0.272918 -0.159255
-0.337049 -0.52625 0.149761
-0.769134 -0.413904 0.285768
0.429503 -0.188483 0.027456
-0.553107 0.109366 0.149761
-0.128526 -0.476004 0.149761
0.481967 0.521386 0.149761
0.572411 -0.355413 0.149761
0.733199 0.448529 0.149761
0.010973 0.171507 -0.29098
-0.153157 0.388006 0.088608
-0.011932 0.024819 -0.081829
0.643087 -0.334423 0.167918
0.012922 -0.323141 -0.081829
0.468844 -0.027153 -0.148977
0.296773 0.434734 0.314203
0.553999 -0.455977 0.08347
-0.121569 0.452626 0.250482
-0.480632 0.196816 0.004332
-0.430816 -0.196899 0.408929
0.038062 0.018069 -0.09382
0.271534 0.484845 0.257333
0.026682 -0.155335 0.08347
-0.219075 -0.514588 0.138626
-0.240096 -0.529725 0.132631
-0.595182 -0.169823 0.443359
0.150884 0.049482 -0.162852
-0.333817 -0.100381 0.337499
-0.092744 0.447774 0.337499
0.249594 0.086873 -0.285841
-0.293171 -0.001081 -0.119686
-0.293638 -0.263966 0.337499
-0.517492 -0.292665 0.337499
-0.359646 -0.275445 0.337499
-0.336687 -0.261096 0.337499
-0.692556 -0.321364 0.337499
-0.531841 -0.298405 0.337499
-0.339556 -0.108991 0.337499
-0.758565 -0.017153 0.337499
-0.376866 -0.275445 0.337499
-0.353907 -0.258226 0.337499
-0.678114 -0.175967 0.443359
-0.553205 -0.020821 0.217764
-0.15152 0.502828 0.013753
-0.27116 -0.277303 0.314203
-0.746232 0.209251 0.250482
-0.229528 0.202226 -0.255693
0.257094 0.484366 0.271208
-0.736504 0.123983 0.401221
0.000968 -0.254293 -0.053395
-0.286704 0.087416 -0.077547
0.096483 -0.018423 -0.057677
-0.568722 -0.121453 0.110192
-0.113013 -0.513802 0.110192
0.075682 0.188607 -0.328151
0.492615 -0.434435 0.121326
0.735045 0.502405 0.110192
-0.028048 -0.078622 -0.036265
0.211195 0.015976 -0.182551
-0.390977 -0.328034 0.299643
0.040602 0.035115 -0.11626
0.373203 0.018995 -0.232569
0.275469 -0.300649 -0.105125
0.497338 0.002159 -0.202421
-0.028554 0.043911 -0.105125
-0.087331 -0.399962 -0.105125
-0.735877 0.262313 0.285768
0.491404 0.072489 -0.293721
-0.712167 -0.064368 0.545793
-0.128393 0.102154 -0.155829
0.210987 0.03307 -0.208416
0.514612 -0.192329 -0.123968
-0.180509 0.115665 -0.155829
0.435843 0.055309 -0.298859
-0.315643 -0.177329 0.392656
0.285812 -0.043626 -0.074121
0.019171 0.141807 -0.253124
-0.299775 -0.157197 0.401221
-0.083855 0.228298 -0.313419
-0.376027 -0.356736 0.27806
-0.418174 0.334849 -0.179125
-0.753661 0.267264 0.230783
0.489507 -0.136803 -0.013826
-0.231876 -0.444344 0.185904
-0.35548 -0.361835 0.264357
-0.550346 0.196384 0.013753
0.125964 0.053316 -0.162852
0.369619 0.149497 -0.360012
-0.137897 0.077233 -0.11626
0.32118 0.167843 -0.366863
-0.364195 -0.481058 0.179908
-0.777447 -0.042539 0.285768
-0.374475 -0.473348 0.179908
-0.545805 0.371339 -0.138699
-0.406867 0.181169 0.004332
-0.769161 0.077263 0.257333
-0.70262 -0.388961 0.285768
-0.684257 -0.185181 0.443359
-0.596944 -0.510867 0.198922
-0.467307 0.285352 -0.130991
-0.468193 0.164909 0.042188
0.520074 -0.256512 0.062743
0.35256 -0.193809 -0.074121
-0.736106 0.297798 0.271208
-0.158674 -0.197137 0.149761
-0.672191 -0.279239 0.360795
-0.137204 0.502779 0.093747
0.293382 0.453031 0.29262
0.083304 0.195373 -0.344424
-0.135155 0.476364 0.143765
-0.750994 0.22193 0.230783
-0.130153 0.51888 0.143765
0.305677 0.446959 0.299643
-0.345853 -0.143404 0.417494
-0.383255 -0.461354 0.198922
0.310554 -0.340926 -0.119686
-0.250906 -0.219971 0.352916
-0.108322 -0.00049 -0.018964
-0.58496 -0.120658 0.099057
0.074426 0.049165 -0.142125
-0.31068 0.141281 -0.023247
-0.222686 -0.131354 0.143765
-0.342867 -0.467575 0.185904
-0.04846 0.049734 -0.108551
0.29001 -0.041334 -0.09382
0.410147 -0.029058 -0.108551
0.403664 0.477928 0.230783
0.217635 0.168118 -0.340141
-0.551619 0.143474 0.105053
0.550312 -0.409918 0.105053
-0.058259 -0.229681 -0.036265
0.632836 -0.405064 0.105053
0.581865 -0.4172 0.105053
-0.12825 -0.110695 0.023174
0.547192 -0.079289 -0.155829
0.454965 0.098745 -0.318558
0.196778 0.071724 -0.255693
0.398657 0.018546 -0.241133
0.1103 0.032441 -0.127394
-0.331783 -0.120007 0.329791
-0.172329 0.18118 -0.241133
-0.685429 -0.177455 0.42623
0.217754 -0.043883 -0.053395
-0.257547 -0.257058 0.329791
-0.66299 -0.328439 0.329791
-0.148567 0.190758 -0.266999
-0.093781 0.132904 -0.202421
0.464456 0.44137 0.257333
0.46561 0.42675 0.271208
-0.351898 -0.155493 0.417494
0.595998 0.444431 0.210913
-0.319116 0.054655 -0.097417
0.365646 0.092486 -0.328151
-0.414874 0.293735 -0.166278
-0.149336 0.116073 -0.166278
-0.218109 0.137087 -0.166278
0.461708 0.02026 -0.208416
-0.17389 0.349377 -0.040547
0.352285 0.18584 -0.390159
-0.490265 -0.538367 0.161751
0.702248 -0.306315 0.179908
-0.575102 -0.208923 0.408929
0.466099 -0.035011 -0.130991
-0.200572 0.219072 -0.288411
0.619953 -0.19973 -0.089538
-0.564598 0.279437 -0.089538
0.545362 -0.249647 0.037905
0.609138 0.536703 0.073192
-0.381241 0.141228 0.037905
-0.756349 -0.184603 0.29262
-0.482072 -0.474696 0.191899
-0.541041 0.253818 -0.061103
-0.750877 0.055904 0.360795
-0.585572 -0.15075 0.434794
0.667822 0.393783 0.24363
0.519796 0.490305 0.179908
-0.716251 0.549409 0.179908
-0.155344 0.218696 -0.301429
0.266001 0.141389 -0.315989
0.064567 0.113089 -0.223833
-0.674439 -0.206089 0.38392
-0.7393 -0.076474 0.307351
0.291089 0.536561 0.179908
0.683244 0.453228 0.155756
-0.099261 -0.050568 -0.036265
-0.447661 0.286936 -0.138699
-0.048661 0.180229 -0.282415
-0.137604 -0.50793 0.127321
-0.688763 -0.397276 0.285768
-0.371863 -0.367297 0.264357
0.543205 -0.33772 0.138626
-0.139359 -0.497151 0.138626
0.32961 0.100896 -0.325581
0.079859 -0.160851 0.138626
-0.278862 -0.527044 0.138626
-0.480641 0.103207 0.138626
0.162464 -0.128865 0.023174
-0.364944 -0.38837 0.250482
-0.758292 0.139759 0.257333
-0.346263 -0.408158 0.22376
0.276299 0.476136 0.271208
-0.679052 -0.227463 0.321911
-0.496902 0.392114 -0.11626
-0.42942 0.255617 -0.1017
0.057123 0.578473 0.204917
-0.03144 0.544704 0.27806
0.214843 0.090705 -0.282415
0.146256 0.036976 -0.148977
-0.748348 0.135797 0.345208
-0.497926 -0.533081 0.167918
-0.142388 0.140875 -0.198995
-0.246217 0.062354 -0.027529
0.323336 0.544276 0.173913
0.078192 0.054182 -0.152403
0.407328 -0.025385 -0.185976
-0.009777 -0.417405 -0.112834
0.312166 -0.302713 -0.112834
0.171251 0.169961 -0.332433
-0.278036 0.074198 -0.085255
0.436703 0.158297 -0.393585
0.666368 0.43067 0.185904
-0.576814 -0.016755 0.38392
-0.126014 -0.501127 0.149761
0.173421 0.018382 -0.130991
-0.717596 -0.356418 0.314203
-0.525953 0.342171 -0.159255
-0.411305 -0.295535 0.337499
0.398292 0.192277 -0.393585
0.528996 0.448596 0.230783
-0.269792 -0.048064 -0.057677
-0.558916 -0.025653 0.376212
0.601721 -0.453591 0.08347
0.349502 -0.060431 -0.069839
0.488252 -0.098116 -0.162852
0.138117 -0.044095 -0.036265
0.075555 0.560386 0.217764
-0.022627 -0.330533 -0.077547
0.441087 -0.143857 0.013753
-0.363647 -0.020282 -0.027529
-0.74404 0.075544 0.392656
0.632199 -0.23729 -0.053395
0.249043 -0.291232 -0.09382
0.306397 -0.268701 -0.09382
0.02782 -0.35678 -0.09382
0.297848 0.461852 0.285768
-0.184854 -0.258705 0.321911
-0.730176 -0.338232 0.321911
-0.556923 -0.31835 0.321911
-0.687573 -0.204742 0.321911
0.201417 0.462711 0.321911
0.190826 0.18803 -0.360012
-0.747217 -0.241664 0.321911
-0.738697 -0.048529 0.321911
-0.730176 -0.261546 0.321911
-0.398627 0.287457 -0.155829
-0.219043 -0.047236 0.032595
0.116107 -0.002305 -0.089538
0.196312 -0.292273 -0.089538
0.755165 -0.331426 0.143765
0.26678 0.169956 -0.358299
0.02511 -0.136391 0.057604
-0.105538 -0.106153 0.023174
-0.755738 0.050878 0.321911
0.741577 0.393129 0.22376
-0.676233 -0.239201 0.345208
-0.574635 -0.553244 0.173913
0.54591 -0.317879 0.173913
-0.073149 -0.121654 0.018035
0.288485 0.18272 -0.37971
0.467283 -0.085343 -0.074121
0.251802 -0.334907 -0.112834
-0.00963 -0.34493 -0.085255
-0.444877 -0.101467 0.360795
0.215899 -0.26722 -0.081829
0.093897 0.560097 0.210913
0.003633 0.181283 -0.305711
-0.252138 0.004044 -0.013826
-0.531144 -0.537895 0.173913
-0.049647 -0.136513 0.032595
-0.396621 0.257738 -0.11626
-0.416678 0.257738 -0.11626
0.489169 -0.013885 -0.169703
-0.19606 0.093277 -0.11626
-0.681893 -0.241664 0.321911
-0.338417 0.063857 -0.061103
-0.333493 -0.189229 0.392656
-0.686941 -0.057989 0.555386
0.297886 0.002592 -0.189402
0.664991 0.46959 0.132631
0.722024 -0.346228 0.132631
-0.188022 -0.529725 0.132631
0.718637 -0.434503 0.08347
0.171877 0.08178 -0.214411
-0.7402 0.155006 0.314203
-0.485748 -0.054712 0.352916
-0.188239 0.182947 -0.241133
-0.280799 -0.024926 -0.089538
-0.741422 0.089151 0.376212
0.288429 0.512779 0.210913
-0.278794 0.356031 -0.173129
0.302305 0.163778 -0.358299
0.189021 0.098652 -0.285841
-0.175652 -0.350511 0.250482
-0.387007 -0.314034 0.314203
-0.113443 0.128496 -0.195569
-0.567206 -0.529882 0.179908
0.21131 0.106028 -0.303142
-0.68388 -0.083349 0.526094
0.704016 0.477542 0.121326
-0.340606 -0.374849 0.250482
-0.693568 -0.067203 0.526094
-0.550086 -0.037426 0.376212
-0.66548 -0.414627 0.27806
0.2353 0.43291 0.345208
0.358844 -0.177086 0.027456
-0.086384 -0.421015 -0.097417
0.643552 0.420367 0.217764
0.342332 -0.035171 -0.097417
-0.394651 0.246556 -0.097417
-0.065969 -0.416933 -0.097417
0.685521 -0.423388 0.093747
0.699955 -0.404142 0.093747
-0.539597 0.418042 -0.097417
-0.415066 0.246556 -0.097417
0.351946 0.435399 0.307351
0.714388 -0.404142 0.093747
0.336705 -0.18042 0.093747
0.507821 -0.076871 -0.166278
-0.21735 0.244237 -0.288411
-0.003701 0.58152 0.217764
0.505742 0.063045 -0.288411
-0.379221 0.014954 -0.069839
0.102714 -0.254855 -0.061103
0.160227 -0.405358 -0.123968
-0.369664 0.270231 -0.142125
-0.764612 0.038838 0.307351
0.001009 0.475562 0.360795
-0.297237 0.409938 -0.130991
-0.08486 0.565355 0.210913
-0.435789 -0.490805 0.185904
-0.524981 0.388102 -0.11626
0.234374 -0.063774 -0.027529
0.393199 0.004951 -0.226402
-0.387485 0.163284 0.018035
0.286064 0.167532 -0.355558
0.350192 0.523712 0.179908
-0.397707 0.399556 -0.127394
0.374525 -0.314938 -0.119686
0.30325 -0.251143 -0.089538
0.242585 -0.346923 -0.119686
0.470532 -0.215836 0.027456
-0.010412 -0.136058 0.027456
0.110801 -0.093298 0.037905
-0.036877 0.48139 0.360795
-0.488063 -0.078881 0.38392
0.524854 0.008893 -0.217837
-0.672387 -0.336639 0.314203
-0.565017 -0.322511 0.314203
-0.412438 -0.308383 0.314203
-0.34745 -0.297081 0.314203
-0.327671 -0.29143 0.314203
-0.759979 -0.215141 0.314203
0.225779 0.135371 -0.29629
-0.348086 0.440652 -0.1017
-0.697817 -0.220792 0.314203
-0.700642 -0.206664 0.314203
-0.030989 0.522326 0.314203
0.031173 0.51385 0.314203
0.084858 0.491245 0.314203
-0.310718 -0.277303 0.314203
-0.245731 -0.277303 0.314203
-0.197391 -0.482143 0.167918
0.327471 0.023053 -0.223833
0.484213 0.118406 -0.352989
-0.766444 0.112586 0.257333
-0.502987 -0.06392 0.376212
0.36014 0.107322 -0.325581
0.534121 -0.384452 0.127321
-0.468527 0.106994 0.127321
0.094839 -0.170881 -0.040547
-0.323642 0.087075 -0.061103
0.32057 -0.074139 -0.040547
-0.676776 -0.447161 0.257333
-0.297383 -0.475918 0.179908
-0.720003 0.127277 0.434794
0.704522 -0.357286 0.127321
-0.346209 0.227538 -0.074121
-0.505688 -0.344821 0.299643
0.322004 0.037363 -0.249698
0.498733 0.473347 0.210913
-0.710458 -0.43283 0.264357
-0.121664 -0.391527 0.210913
0.438878 0.110537 -0.325581
-0.210968 0.086474 -0.105125
0.583588 0.391082 0.271208
-0.764702 -0.282059 0.29262
0.303592 0.049326 -0.253124
-0.562999 -0.144335 0.093747
0.66054 -0.49663 0.052465
0.431686 0.434436 0.27806
0.479776 0.48456 0.191899
-0.658278 -0.388961 0.285768
-0.684036 -0.43434 0.250482
-0.219204 0.100872 -0.119686
0.153701 -0.104146 0.027456
-0.759208 0.076066 0.27806
0.201582 -0.392222 -0.127394
-0.028016 0.452391 0.408929
-0.544431 0.307105 -0.130991
0.313499 0.416776 0.329791
-0.743783 -0.121395 0.352916
0.543191 -0.381558 0.099057
0.359518 -0.027018 -0.1017
-0.542605 0.058817 0.22376
0.615907 -0.440954 0.088608
-0.602748 -0.146425 0.417494
-0.483783 0.136443 0.088608
-0.054158 0.20802 -0.315989
0.05049 -0.119912 0.088608
0.35321 -0.123578 0.013753
-0.703468 -0.192536 0.314203
0.326795 -0.387101 -0.142125
-0.002297 0.122644 -0.220407
0.257481 0.19871 -0.371146
-0.215497 0.310931 -0.214411
-0.326073 -0.27419 0.329791
-0.335342 0.43157 -0.108551
0.059383 0.491013 0.329791
0.439225 0.49778 0.185904
-0.326998 0.356776 -0.166278
-0.714771 -0.266 0.314203
-0.488445 -0.087182 0.368504
0.617029 -0.289004 0.210913
0.283752 0.043294 -0.241133
-0.010058 -0.042171 -0.013826
0.243954 0.43868 0.345208
-0.567415 -0.100739 0.132631
0.014836 -0.10161 0.023174
-0.239539 0.064187 0.023174
-0.308754 -0.529536 0.138626
-0.303743 -0.180304 0.392656
0.055837 0.136105 -0.255693
-0.670018 -0.09268 0.516502
-0.698916 -0.083047 0.516502
-0.705633 -0.051301 0.545793
-0.048543 0.101 -0.179125
-0.306693 -0.444922 0.204917
-0.013822 -0.164308 -0.023247
-0.365856 0.051194 -0.061103
0.347374 -0.329703 -0.123968
0.528251 -0.311436 0.204917
-0.002152 -0.078622 -0.036265
0.237302 -0.384284 -0.127394
-0.751502 -0.059736 0.314203
0.284502 0.172428 -0.366863
0.533486 -0.298349 0.204917
0.11053 0.479753 0.321911
-0.638823 -0.170566 0.451924
0.251827 0.119964 -0.298859
0.562447 -0.426908 0.105053
-0.545719 0.274113 -0.09382
0.289253 -0.018839 -0.097417
-0.438675 0.293491 -0.148977
-0.080259 0.050572 -0.097417
0.017663 0.581128 0.210913
-0.319467 -0.131949 0.337499
0.650555 -0.34823 0.161751
0.615063 0.465556 0.161751
0.592247 0.483302 0.161751
0.544079 0.485837 0.161751
-0.784193 -0.089933 0.29262
0.408197 0.410087 0.307351
-0.730862 -0.371785 0.307351
-0.758987 -0.070849 0.307351
-0.171177 -0.270536 0.307351
-0.618363 -0.35491 0.307351
-0.75055 -0.158036 0.307351
0.256044 0.528743 0.204917
0.769708 -0.310202 0.161751
-0.227426 -0.281786 0.307351
-0.663363 -0.36616 0.307351
-0.471737 0.449414 -0.081829
0.330569 -0.348565 -0.127394
0.622586 0.454329 0.179908
0.522113 -0.424601 0.121326
0.514738 -0.417227 0.121326
-0.161255 -0.166495 0.121326
-0.40757 0.435088 -0.105125
0.050492 -0.381721 -0.105125
0.007098 0.123475 -0.226402
-0.667832 -0.267032 0.376212
0.041569 0.128147 -0.241133
-0.132919 -0.45022 0.179908
-0.437972 0.429007 -0.105125
0.221254 0.099171 -0.293721
0.390998 -0.270246 -0.105125
-0.277279 -0.408158 0.22376
0.354515 -0.284434 -0.105125
-0.104059 0.103155 -0.162852
-0.667579 -0.172855 0.345208
-0.289301 -0.293035 0.307351
-0.532305 -0.04901 0.360795
0.577011 -0.434704 0.099057
-0.63283 -0.325336 0.314203
-0.160532 0.408191 0.013753
-0.49086 -0.169081 0.434794
0.213195 0.484366 0.271208
-0.564846 -0.039102 0.185904
0.692391 -0.434503 0.08347
-0.474506 -0.490805 0.185904
-0.632288 -0.318494 0.337499
0.709093 -0.453591 0.08347
0.666144 -0.444047 0.08347
-0.709769 0.583708 0.204917
0.730567 -0.470293 0.08347
-0.329674 0.331657 -0.192828
0.306651 -0.022951 -0.1017
6.2e-05 0.459537 0.38392
0.202077 0.098277 -0.288411
-0.747217 -0.173499 0.321911
-0.081549 -0.091036 -0.005261
-0.018687 0.058238 -0.127394
-0.278643 0.244773 -0.127394
0.448214 -0.11131 -0.031811
0.405251 0.443211 0.271208
-0.41589 0.275464 -0.130991
0.617598 -0.345695 0.161751
0.190703 0.065442 -0.195569
-0.047869 -0.137098 0.013753
-0.747995 0.219139 0.29262
-0.724539 0.118001 0.401221
0.622897 -0.402478 0.121326
0.010188 -0.026793 -0.023247
0.109362 -0.216036 -0.053395
-0.317894 0.079098 -0.077547
-0.750779 0.149529 0.29262
-0.012775 0.490602 0.345208
0.331644 -0.121654 0.018035
-0.315439 -0.427666 0.217764
-0.013546 0.588942 0.204917
-0.217475 -0.271652 0.314203
-0.739522 0.110454 0.38392
-0.416158 -0.33363 0.299643
0.377813 0.166181 -0.385706
-0.177665 -0.375398 0.230783
0.731619 -0.412963 0.099057
-0.7393 0.207588 0.307351
-0.653183 -0.56025 0.191899
-0.004577 -0.063648 -0.031811
-0.204927 -0.278973 0.307351
-0.406786 -0.319685 0.314203
-0.293171 0.030905 -0.119686
-0.382004 -0.256509 0.345208
-0.525307 0.275137 -0.097417
0.093567 0.101312 -0.217837
-0.632971 -0.221982 0.417494
-0.742426 0.205217 0.29262
-0.199579 0.070069 -0.085255
0.323274 -0.297757 -0.108551
0.072758 -0.394731 -0.108551
-0.444438 0.421469 -0.108551
-0.239396 0.056683 0.013753
0.362278 0.164219 -0.375428
-0.158674 -0.49359 0.149761
-0.315139 0.439651 -0.108551
-0.016135 -0.406853 -0.108551
-0.573521 -0.392816 0.257333
0.262665 -0.31998 -0.108551
-0.595671 -0.477143 0.22376
-0.53612 0.433451 -0.085255
-0.758056 -0.15216 0.271208
0.228868 0.492841 0.264357
-0.341827 -0.359104 0.264357
0.217343 0.038132 -0.214411
0.047995 0.175314 -0.303142
-0.685075 -0.101908 0.507081
0.22343 0.075017 -0.272138
-0.300742 0.234307 -0.097417
-0.170807 -0.36637 0.237635
-0.676663 0.012616 0.376212
0.74129 -0.324083 0.155756
0.288998 0.504595 0.230783
0.109091 0.184306 -0.332433
-0.023927 -0.292846 -0.061103
-0.605162 -0.13678 0.408929
0.028694 0.514106 0.299643
0.434376 0.418981 0.299643
0.566471 0.519225 0.11533
0.449027 0.553479 0.11533
0.696148 -0.393408 0.11533
0.593385 0.502098 0.11533
0.586045 -0.403195 0.11533
0.605619 -0.395855 0.11533
0.463708 0.543692 0.11533
0.515808 0.061368 -0.288411
-0.449731 -0.339226 0.299643
-0.746299 -0.252493 0.299643
-0.463721 -0.342023 0.299643
0.532217 0.531459 0.11533
0.398605 0.43995 0.27806
-0.723917 -0.386788 0.299643
0.244988 0.066232 -0.258263
-0.777447 -0.40559 0.285768
0.03085 -0.242846 -0.057677
-0.118115 0.171033 -0.247129
-0.778624 -0.348885 0.29262
0.590684 -0.080495 -0.130991
-0.73506 -0.565592 0.198922
-0.277461 0.419826 -0.130991
0.621572 -0.23304 -0.053395
-0.159146 0.002079 -0.005261
0.036896 -0.234597 -0.04483
0.185028 -0.077944 -0.000122
0.156283 0.035251 -0.145551
-0.648082 0.092335 0.417494
-0.33033 -0.048167 0.29262
-0.011771 0.465454 0.38392
-0.147013 -0.130337 0.013753
0.080565 -0.071753 0.013753
0.596676 -0.320448 0.185904
-0.452945 -0.240539 0.376212
0.423536 -0.081779 -0.061103
0.376072 0.502708 0.191899
-0.588353 -0.24937 0.376212
0.392703 0.454613 0.264357
0.703797 -0.473781 0.073192
-0.012041 0.209807 -0.332433
-0.130195 0.487308 0.127321
-0.482763 -0.063582 0.360795
-0.645922 0.086931 0.42623
0.647832 -0.372596 0.138626
-0.502809 0.193157 0.008614
0.128329 0.046177 -0.155829
-0.047956 0.452662 0.352916
0.62783 -0.20197 0.042188
-0.376726 -0.518411 0.155756
-0.140908 0.410078 0.132631
-0.362243 -0.351223 0.27806
-0.508942 -0.046013 0.352916
0.192031 0.441564 0.345208
-0.041621 0.476179 0.345208
-0.07551 -0.126935 -0.000122
-0.485515 -0.075467 0.368504
-0.390997 -0.407398 0.230783
-0.114184 0.179016 -0.258263
0.62581 -0.200066 -0.074121
-0.412416 0.450128 -0.089538
-0.406168 0.409584 -0.112834
-0.358927 -0.080548 0.345208
-0.497402 -0.034372 0.337499
-0.459403 0.172521 0.032595
-0.557544 -0.389141 0.264357
-0.163605 0.371333 0.018035
-0.62374 -0.55044 0.179908
0.635331 0.440486 0.191899
0.652593 0.481989 0.132631
0.532655 -0.036754 -0.166278
-0.680311 -0.190887 0.408929
0.383666 -0.058029 -0.081829
0.125754 -0.415404 -0.134417
0.123335 0.037427 -0.142125
-0.215805 0.218823 -0.277276
-0.137362 0.107478 -0.159255
0.470644 0.449922 0.250482
0.431272 0.135625 -0.360012
-0.386714 0.268543 -0.134417
-0.294075 0.252775 -0.134417
-0.185669 0.386805 -0.134417
-0.284261 -0.267226 0.321911
-0.70683 -0.406357 0.27806
-0.191582 0.337529 -0.134417
-0.487699 0.222326 -0.031811
-0.442258 -0.260561 0.352916
0.062733 0.084709 -0.189402
-0.168723 -0.1896 0.149761
0.024619 -0.001574 -0.061103
0.328769 -0.37007 -0.134417
-0.422388 -0.268047 0.345208
0.283991 0.467395 0.285768
0.387469 -0.023535 -0.189402
0.522164 -0.350388 0.149761
-0.195952 0.366597 -0.155829
-0.132508 0.531649 0.110192
0.654626 -0.396829 0.110192
-0.193914 -0.411815 0.217764
-0.544353 0.134426 0.110192
-0.675615 -0.183278 0.392656
-0.352325 -0.020394 -0.040547
-0.565386 0.242917 -0.036265
0.372133 -0.374012 -0.134417
-0.557855 -0.028765 0.198922
0.312806 0.071434 -0.288411
-0.764612 -0.020224 0.307351
-0.340617 -0.314045 0.299643
-0.756451 -0.42014 0.27806
0.389376 0.144836 -0.352989
0.651735 0.524871 0.073192
-0.655467 -0.11103 0.49766
-0.693567 -0.107855 0.49766
0.71563 -0.452483 0.073192
-0.770271 -0.089933 0.29262
-0.375747 0.417428 -0.108551
-0.756349 -0.165113 0.29262
0.004154 0.151922 -0.263573
-0.514103 -0.351669 0.29262
0.454879 0.419618 0.29262
0.471585 0.419618 0.29262
0.49943 0.405696 0.29262
0.318442 0.453031 0.29262
0.076197 0.514289 0.29262
0.248831 0.469738 0.29262
-0.288565 -0.318256 0.29262
-0.328775 -0.515887 0.155756
0.294321 0.114194 -0.313419
-0.061621 -0.054697 -0.04483
-0.566692 -0.061904 0.167918
-0.14977 0.474103 0.042188
0.377819 -0.266952 -0.1017
0.574501 -0.338089 0.161751
0.032376 -0.188679 -0.036265
-0.634538 -0.539847 0.185904
-0.114368 0.014171 -0.036265
-0.26648 0.408486 -0.134417
-0.269956 -0.385128 0.237635
0.319797 0.081834 -0.298859
-0.467663 -0.243482 0.376212
0.643416 -0.280027 0.204917
-0.663553 -0.531732 0.191899
-0.586366 -0.09403 0.392656
0.295505 0.470648 0.271208
-0.523223 -0.545972 0.161751
0.591514 0.466806 0.185904
0.393166 -0.321739 -0.123968
0.37453 -0.060218 -0.077547
0.286211 0.06359 -0.266999
0.321917 -0.03313 -0.097417
-0.774517 -0.237213 0.271208
0.307895 -0.365263 -0.130991
-0.081849 0.44321 0.314203
-0.321204 -0.498221 0.155756
0.056228 -0.245792 -0.053395
0.005288 -0.367022 -0.09382
-0.357702 -0.009799 -0.049112
-0.736564 0.122287 0.38392
-0.308156 -0.36944 0.250482
0.28327 0.144816 -0.33072
-0.761009 0.096283 0.257333
0.402066 -0.041179 -0.108551
-0.055435 0.473602 0.337499
0.263523 -0.415157 -0.145551
0.120954 0.090873 -0.214411
-0.373325 0.199757 -0.036265
-0.374309 0.329797 -0.192828
0.485987 -0.004785 -0.185976
0.075535 -0.190838 -0.036265
-0.050195 0.531008 0.271208
-0.733391 0.146247 0.360795
-0.331935 0.339223 -0.182551
-0.243184 0.435743 -0.112834
-0.002152 -0.013883 -0.036265
0.373332 0.139343 -0.341854
0.013146 -0.216027 -0.040547
0.452248 -0.135842 -0.000122
0.233455 -0.411846 -0.138699
-0.702994 -0.503397 0.230783
-0.461813 0.12163 0.105053
-0.758578 -0.201902 0.321911
0.733514 -0.368064 0.121326
-0.207317 0.234246 -0.293721
-0.162292 0.212567 -0.293721
-0.450133 0.260781 -0.105125
0.620116 -0.361437 0.143765
-0.140157 0.411341 0.143765
-0.341214 -0.03113 -0.053395
0.317508 0.563896 0.143765
-0.515805 -0.485643 0.185904
-0.168982 -0.4073 0.210913
0.301497 -0.175605 0.073192
-0.042346 -0.238881 -0.04483
0.472925 -0.034975 -0.138699
-0.463449 0.243367 -0.077547
0.386519 -0.30894 -0.119686
0.443578 0.513576 0.173913
-0.021574 -0.212417 -0.036265
0.062195 0.439445 0.376212
0.372819 -0.386328 -0.138699
-0.057666 0.547261 0.230783
-0.390071 -0.109797 0.352916
0.022425 -0.144367 0.068053
-0.245492 -0.480555 0.155756
0.005543 -0.069956 0.027456
0.316247 0.473727 0.264357
-0.041085 0.505172 0.337499
-0.567938 -0.090714 0.38392
0.34054 -0.318936 -0.119686
0.452489 -0.045061 -0.119686
-0.429108 0.270795 -0.119686
-0.248543 0.038947 -0.018964
0.093276 0.060674 -0.166278
0.260576 -0.346923 -0.119686
0.156624 -0.386905 -0.119686
0.436496 -0.037064 -0.119686
0.561443 -0.368064 0.121326
0.208492 -0.1355 0.047327
-0.41994 -0.344619 0.285768
-0.406083 -0.339077 0.285768
-0.749734 -0.408361 0.285768
-0.522481 -0.36679 0.285768
-0.58068 -0.36679 0.285768
-0.242571 -0.316905 0.285768
-0.752505 0.129287 0.285768
-0.263976 -0.478487 0.179908
-0.677678 -0.391733 0.285768
-0.286913 -0.327991 0.285768
0.669938 0.409048 0.22376
-0.713706 -0.388961 0.285768
-0.073517 0.508966 0.285768
0.144612 0.462711 0.321911
0.209363 -0.066218 -0.018964
-0.769134 -0.247621 0.285768
0.325562 0.45631 0.285768
-0.46151 -0.355705 0.285768
-0.771905 -0.023139 0.285768
-0.087374 0.514509 0.285768
0.29485 -0.366424 -0.127394
0.46413 0.423053 0.285768
0.134336 0.497881 0.285768
-0.162729 0.460637 -0.031811
-0.261679 -0.503639 0.149761
0.390106 -0.187551 -0.074121
-0.337114 -0.304285 0.307351
-0.771489 -0.294177 0.329791
-0.20617 0.15446 -0.195569
0.640313 -0.386921 0.127321
-0.621611 -0.128833 0.42623
0.385203 -0.049462 -0.097417
0.659535 0.500267 0.105053
-0.0966 -0.23203 0.198922
-0.087269 0.166236 -0.253124
-0.196026 -0.362421 0.24363
-0.002908 -0.101008 -0.023247
0.325029 0.440385 0.314203
-0.173861 0.429562 -0.089538
-0.161363 0.416666 -0.005261
-0.344476 0.249715 -0.11626
-0.118241 0.544447 0.204917
0.237418 0.097129 -0.29629
0.686618 -0.312762 0.173913
0.121431 0.009455 -0.105125
-0.13351 0.053551 -0.085255
0.046674 -0.418891 -0.119686
0.427461 0.521329 0.161751
-0.381402 0.272187 -0.142125
-0.207287 0.407176 -0.142125
0.2544 0.461385 0.29262
0.18985 0.021775 -0.142125
-0.412703 0.276101 -0.142125
0.238332 0.512595 0.230783
-0.2343 -0.305652 0.299643
0.537535 -0.258312 0.047327
-0.538767 -0.230879 0.392656
-0.219004 -0.477523 0.161751
0.477064 0.131165 -0.366863
-0.714817 -0.466181 0.257333
0.486302 0.414739 0.285768
-0.735605 0.155042 0.337499
-0.027354 -0.241022 -0.04483
0.037858 -0.34493 -0.085255
0.470136 0.021764 -0.214411
0.168418 0.453513 0.337499
0.44763 0.147204 -0.377141
-0.412454 0.353714 -0.159255
-0.169799 -0.323606 0.264357
0.608985 0.413422 0.237635
0.627902 0.479365 0.138626
0.451034 0.526696 0.138626
0.398721 0.549116 0.138626
0.295351 0.077829 -0.29098
0.449149 0.43498 0.271208
-0.555737 -0.375104 0.285768
-0.58273 -0.055214 0.38392
-0.476934 -0.264668 0.360795
0.392842 0.414955 0.314203
0.230565 0.157594 -0.33072
0.367096 -0.219582 -0.081829
0.322226 -0.316797 -0.112834
0.320354 0.526304 0.198922
-0.595291 -0.242778 0.392656
0.642236 -0.420209 0.099057
0.668949 -0.299799 0.185904
0.038943 -0.218177 -0.040547
0.347587 -0.10912 -0.000122
-0.298977 0.237622 -0.108551
-0.146769 -0.080171 -0.000122
-0.071057 -0.135842 -0.000122
0.310168 0.533917 0.185904
0.396728 0.066627 -0.301429
0.31032 -0.05865 -0.057677
0.289431 0.097893 -0.313419
0.567152 -0.321559 0.155756
0.253509 0.460712 0.307351
0.273709 -0.359567 -0.123968
-0.73681 -0.106509 0.345208
-0.558916 -0.255257 0.376212
-0.357735 -0.531498 0.143765
0.340171 -0.047672 -0.081829
0.03179 -0.337516 -0.089538
0.176547 -0.016605 -0.081829
-0.510848 -0.460626 0.204917
0.696642 -0.37298 0.121326
-0.408211 -0.407299 0.250482
0.46237 -0.128363 -0.009543
-0.755575 -0.479768 0.257333
0.004833 0.490822 0.337499
-0.361473 0.190656 -0.027529
0.714585 0.464631 0.132631
0.516744 0.457353 0.217764
-0.754117 0.040605 0.345208
-0.532788 0.23657 -0.04483
0.068901 -0.276117 -0.069839
0.157395 0.161465 -0.313419
-0.578431 -0.350416 0.299643
0.25414 0.103182 -0.31085
0.067971 0.490822 0.337499
-0.377967 0.37842 -0.145551
-0.398942 -0.204104 0.392656
-0.356536 -0.531029 0.155756
0.185875 0.107105 -0.29629
-0.530054 0.321875 -0.145551
-0.173236 0.107394 -0.145551
-0.011022 0.469322 0.368504
-0.567428 -0.021034 0.185904
0.504631 -0.491976 0.052465
0.150084 -0.332019 -0.1017
-0.273002 -0.374849 0.250482
-0.770235 -0.43668 0.27806
0.012668 0.530921 0.27806
-0.772991 -0.450464 0.27806
0.59196 0.470085 0.173913
-0.224409 -0.320899 0.27806
-0.34846 -0.359493 0.27806
-0.734398 0.282818 0.27806
-0.750938 -0.114147 0.27806
-0.392567 -0.359493 0.27806
-0.172031 -0.318143 0.27806
-0.745425 -0.433924 0.27806
0.001641 0.547461 0.27806
-0.748327 -0.474064 0.230783
0.13191 -0.163306 -0.031811
0.400233 0.414428 0.321911
-0.265041 0.291274 -0.202421
-0.732224 0.130332 0.434794
-0.66074 -0.120804 0.392656
-0.209111 -0.173307 0.138626
-0.199573 0.183537 -0.238564
-0.513058 0.275137 -0.097417
-0.532325 0.248344 -0.057677
0.275267 0.201253 -0.372859
-0.227143 -0.056716 0.047327
-0.367691 -0.163833 0.408929
0.562105 -0.303893 0.155756
-0.706591 0.058176 0.401221
-0.527113 -0.217023 0.401221
0.354475 0.457344 0.264357
0.180338 -0.029017 -0.065556
-0.691599 -0.12271 0.479502
0.203718 0.567398 0.179908
0.219244 -0.110695 0.023174
0.328546 -0.322934 -0.119686
0.197379 0.572275 0.167918
-0.354128 -0.380258 0.250482
-0.330947 -0.12621 0.337499
-0.6756 -0.379513 0.29262
-0.748181 0.161523 0.27806
-0.275174 -0.338728 0.271208
0.450792 -0.070329 -0.085255
-0.268886 0.144333 -0.031811
-0.067721 0.021436 -0.065556
-0.249388 0.046842 -0.031811
-0.429357 0.432333 -0.097417
-0.40396 -0.302732 0.314203
0.073506 0.113944 -0.229999
0.381398 -0.228521 -0.089538
-0.606128 -0.411837 0.257333
-0.711414 -0.456705 0.271208
0.399686 0.057481 -0.293721
0.424383 -0.104811 -0.031811
-0.300472 0.012597 -0.127394
0.468217 -0.070011 -0.09382
-0.198322 -0.449507 0.185904
-0.304343 0.285502 -0.185976
0.517726 -0.107172 -0.169703
0.172645 -0.050568 -0.036265
-0.287459 -0.308449 0.299643
0.082321 0.479342 0.337499
0.617615 0.478865 0.143765
-0.155071 0.475834 0.008614
-0.428401 -0.205058 0.401221
-0.232134 0.332497 -0.195569
0.109541 -0.17017 0.132631
0.389746 0.558859 0.132631
0.697549 -0.413765 0.093747
0.264495 0.554509 0.173913
-0.548566 0.149152 0.093747
0.550805 -0.420982 0.093747
0.704766 -0.420982 0.093747
-0.364696 -0.120932 0.345208
-0.267372 -0.519807 0.132631
0.75426 -0.351187 0.132631
0.08229 -0.044309 -0.018964
-0.151239 0.059391 -0.089538
0.131314 0.164726 -0.313419
-0.23337 -0.243876 0.337499
0.352135 0.113761 -0.315989
-0.692306 -0.379513 0.29262
-0.151519 0.132496 -0.182551
0.399875 0.116568 -0.318558
0.167435 0.079211 -0.20499
-0.516836 0.28282 -0.112834
0.228381 -0.046007 -0.053395
-0.329851 0.270171 -0.148977
-0.237561 -0.262769 0.329791
0.30755 -0.408038 -0.148977
-0.487847 0.231287 -0.049112
-0.34997 0.184936 -0.023247
0.030152 0.469733 0.360795
0.27138 0.02026 -0.208416
0.64534 0.474382 0.138626
0.202268 0.177444 -0.346993
0.142179 0.155884 -0.301429
-0.669666 -0.114854 0.392656
-0.028851 -0.395053 -0.1017
-0.416019 -0.504636 0.173913
0.29132 -0.381896 -0.134417
-0.076831 0.11043 -0.179125
0.54652 -0.125547 -0.214411
-0.756328 -0.49273 0.230783
-0.008286 -0.389829 -0.105125
-0.046629 -0.065405 -0.04483
-0.774278 -0.330832 0.299643
-0.41682 0.211788 -0.040547
-0.157629 -0.466262 0.173913
-0.770235 -0.301603 0.27806
-0.006582 0.182331 -0.301429
0.284971 -0.419057 -0.145551
-0.73848 0.148024 0.376212
0.366334 0.062484 -0.293721
-0.646995 -0.458065 0.230783
-0.598266 -0.055355 0.392656
0.112299 0.567984 0.210913
0.22209 0.003135 -0.173129
-0.200522 -0.263174 0.314203
0.375032 0.043246 -0.263573
-0.482093 0.254721 -0.081829
-0.755312 -0.176852 0.271208
0.109754 -0.317861 -0.09382
-0.247737 -0.338728 0.271208
